-0.16998755932 0.051922827959 0.46307784319
-0.1595735997 0.049840599298 0.46566644311
-0.14920642972 0.047903034836 0.46922132373
-0.13639867306 0.046533234417 0.47603574395
-0.14005595446 0.048108477145 0.47526925802
-0.11215148121 0.043288372457 0.47526153922
-0.10171947628 0.043978538364 0.47824835777
-0.099855810404 0.045693382621 0.48331466317
-0.098703794181 0.046544101089 0.48316553235
-0.10076124966 0.048630509526 0.48538729548
-0.098010919988 0.047011423856 0.48621070385
-0.096885763109 0.049532547593 0.48809894919
-0.095383346081 0.049033112824 0.48884826899
-0.089952513576 0.050611361861 0.4907028079
-0.089679509401 0.050956133753 0.49182593822
-0.085168108344 0.050368741155 0.49053815007
-0.081028021872 0.049810584635 0.49162089825
-0.082844719291 0.054212652147 0.49093234539
-0.077826321125 0.051899883896 0.4940918684
-0.072005741298 0.050427298993 0.48663437366
-0.071725338697 0.050275657326 0.48750120401
-0.076824367046 0.052584629506 0.48947617412
-0.06194235757 0.051986198872 0.49268823862
-0.062709853053 0.053078260273 0.4934656918
-0.057194493711 0.045778308064 0.48608767986
-0.058483012021 0.05629215017 0.49520274997
-0.05525451526 0.051089890301 0.48812153935
-0.049964047968 0.048326674849 0.48859319091
-0.049634091556 0.051873814315 0.49091112614
-0.045618645847 0.049341503531 0.48980909586
-0.043141692877 0.049854397774 0.49184945226
-0.040382664651 0.049591612071 0.49225890636
-0.038467321545 0.04850538075 0.49253177643
-0.034898862243 0.047934819013 0.49319124222
-0.031959887594 0.04633365199 0.49313655496
-0.18670290709 0.055637959391 0.45802274346
-0.17154015601 0.05214086175 0.4629150033
-0.17607033253 0.055211085826 0.46407675743
-0.13052159548 0.047002956271 0.47891697288
-0.11900246143 0.042106267065 0.47202962637
-0.11414117366 0.04338317737 0.47725650668
-0.1127769649 0.044000778347 0.47789594531
-0.10597513616 0.042881041765 0.47858074307
-0.10128246993 0.042281929404 0.47926396132
-0.098893947899 0.043590981513 0.48154303432
-0.091113947332 0.043580990285 0.48321121931
-0.088219568133 0.044341426343 0.48315611482
-0.074311189353 0.04282495752 0.48694366217
-0.079414658248 0.046713061631 0.48847872019
-0.07678630203 0.045070577413 0.49007931352
-0.079636216164 0.047759659588 0.48925727606
-0.082392692566 0.049235992134 0.49450555444
-0.074290119112 0.048698090017 0.49197971821
-0.080312140286 0.051714077592 0.49269223213
-0.075482130051 0.050516258925 0.49364688993
-0.075531862676 0.052576508373 0.49690982699
-0.075372643769 0.053713232279 0.49358260632
-0.076744660735 0.05326429382 0.4955997467
-0.069684840739 0.050805270672 0.48838627338
-0.069596901536 0.052691362798 0.49501091242
-0.060419451445 0.055243514478 0.49746900797
-0.060220256448 0.050149027258 0.48547515273
-0.062136076391 0.054100666195 0.49230563641
-0.058828677982 0.053717374802 0.49157461524
-0.05219091475 0.054300460964 0.49070340395
-0.052354004234 0.052775196731 0.48968911171
-0.04943748191 0.052845910192 0.49145743251
-0.046618994325 0.054192978889 0.49205681682
-0.044549625367 0.051168229431 0.492172122
-0.040910910815 0.048443969339 0.49139982462
-0.03874983266 0.050099864602 0.49287840724
-0.036265838891 0.046720769256 0.49250948429
-0.035999260843 0.050924126059 0.49463757873
-0.03233448416 0.047801621258 0.49397838116
-0.16845804453 0.050293106586 0.462523669
-0.16514848173 0.051108248532 0.46439525485
-0.11501175165 0.04344863072 0.47699189186
-0.11326424032 0.043442443013 0.47837916017
-0.1100820154 0.04404322058 0.47946223617
-0.10801125318 0.043337348849 0.47893503308
-0.10645414144 0.04486444965 0.48253446817
-0.090054504573 0.043730925769 0.48615452647
-0.089976549149 0.044490456581 0.48629719019
-0.081542864442 0.042644113302 0.48466539383
-0.082189299166 0.043983142823 0.4873316884
-0.077077299356 0.042512845248 0.48589584231
-0.076754420996 0.044995799661 0.49109208584
-0.074525825679 0.045616321266 0.48781576753
-0.070545345545 0.045104410499 0.48952803016
-0.063042096794 0.043227996677 0.49026104808
-0.066025614738 0.048684444278 0.49439939857
-0.06156462431 0.048274923116 0.49358120561
-0.061410993338 0.048686493188 0.49413824081
-0.071864567697 0.051031365991 0.49819791317
-0.074596680701 0.055174130946 0.49700558186
-0.071758151054 0.051951520145 0.49168246984
-0.072156243026 0.053171012551 0.4967867136
-0.068904221058 0.053976450115 0.49056082964
-0.0658037588 0.054491840303 0.49334138632
-0.06241312623 0.053610153496 0.49513882399
-0.059464588761 0.05460954085 0.48974916339
-0.061482470483 0.055226843804 0.49523147941
-0.058699499816 0.052664566785 0.48810681701
-0.050178959966 0.052435401827 0.4880746901
-0.050375111401 0.054823163897 0.49176433682
-0.050466232002 0.05688906461 0.49250665307
-0.042051438242 0.049013998359 0.4904217422
-0.043639287353 0.053664855659 0.49261215329
-0.039652943611 0.05126870051 0.49216502905
-0.035933610052 0.050070568919 0.49258831143
-0.032688144594 0.050790458918 0.4936041832
-0.19106438756 0.057633146644 0.45924764872
-0.14406044781 0.045627988875 0.46967315674
-0.12953667343 0.041084047407 0.47188341618
-0.12091755122 0.047256167978 0.48150154948
-0.10513987392 0.042298808694 0.47873994708
-0.10599954426 0.045105624944 0.48225066066
-0.07649577409 0.04500855878 0.48980978131
-0.076867677271 0.045149110258 0.49185153842
-0.071874506772 0.045193549246 0.49069952965
-0.069880306721 0.045685097575 0.4922953248
-0.067804902792 0.046405658126 0.49200299382
-0.06858433038 0.047350879759 0.49479395151
-0.061745375395 0.046061340719 0.4920527041
-0.060571949929 0.046166889369 0.4929240346
-0.061503212899 0.048467624933 0.4957253933
-0.061069324613 0.048689424992 0.49572718143
-0.055143855512 0.048555552959 0.49379166961
-0.057395104319 0.049335502088 0.49512174726
-0.061403613538 0.051626052707 0.50044554472
-0.072014167905 0.054230026901 0.4977504015
-0.071427129209 0.056440133601 0.49532359838
-0.060942899436 0.055292557925 0.49104732275
-0.058624275029 0.056938767433 0.49391496181
-0.055079095066 0.05384696275 0.4936543107
-0.05800190568 0.055428612977 0.48944327235
-0.051248986274 0.056496366858 0.48881030083
-0.051703795791 0.054537106305 0.48917686939
-0.052504703403 0.057441469282 0.492901057
-0.048802260309 0.057301174849 0.49330225587
-0.046471167356 0.055736791342 0.4933116734
-0.040464345366 0.051224663854 0.49076408148
-0.040661063045 0.054293397814 0.49308469892
-0.03437461704 0.051585756242 0.49083688855
-0.034059952945 0.053339991719 0.4937722981
-0.032578073442 0.05033107847 0.4927483201
-0.16710852087 0.04829063639 0.46108958125
-0.1606952101 0.049046430737 0.46434083581
-0.15159900486 0.045768614858 0.46477070451
-0.14625996351 0.043273616582 0.46725282073
-0.1375567168 0.040813539177 0.46788078547
-0.13258226216 0.047194227576 0.47977435589
-0.12799400091 0.046111308038 0.47916346788
-0.12472405285 0.049286179245 0.48415434361
-0.077058963478 0.044478781521 0.49090760946
-0.071137331426 0.045211479068 0.49215713143
-0.070762060583 0.046877123415 0.49323117733
-0.068844147027 0.04743752256 0.49584418535
-0.056975077838 0.047490231693 0.49419790506
-0.067781575024 0.055461220443 0.49756732583
-0.064083345234 0.053938627243 0.49450698495
-0.065701529384 0.056822571903 0.49580666423
-0.065865710378 0.055526860058 0.49151554704
-0.064528666437 0.056381162256 0.49673706293
-0.063313104212 0.056462455541 0.49231740832
-0.050320833921 0.056823857129 0.49024823308
-0.049458805472 0.058785609901 0.48971438408
-0.048426378518 0.05297639966 0.48710000515
-0.046064607799 0.053953241557 0.48931264877
-0.044344808906 0.056693915278 0.49145439267
-0.040974263102 0.054165337235 0.49130964279
-0.038596861064 0.053161676973 0.49229457974
-0.037799224257 0.055007278919 0.49343821406
-0.033186674118 0.053221836686 0.49294513464
-0.032421249896 0.054178353399 0.49439558387
-0.14005354047 0.047640271485 0.47679972649
-0.13815455139 0.047243397683 0.47830298543
-0.13512566686 0.048694070429 0.48007386923
-0.13317631185 0.048152323812 0.4805893302
-0.1309440136 0.049167577177 0.48165041208
-0.12862443924 0.050001103431 0.48295232654
-0.12561795115 0.049993481487 0.48315706849
-0.12150193006 0.050365746021 0.48474988341
-0.10034047812 0.048489529639 0.4877923429
-0.083522386849 0.049404431134 0.49382632971
-0.078943535686 0.049888834357 0.49523687363
-0.069485589862 0.049298781902 0.49620893598
-0.054253019392 0.052949804813 0.50022399426
-0.060042962432 0.053028605878 0.50052386522
-0.065386801958 0.057817135006 0.49851086736
-0.06555750221 0.05846278742 0.49658706784
-0.061830151826 0.056124370545 0.49504411221
-0.055428940803 0.058061081916 0.49392810464
-0.05704087764 0.056906025857 0.49315667152
-0.052877835929 0.056978512555 0.49234953523
-0.05058195442 0.054423779249 0.48583462834
-0.046870272607 0.056089382619 0.4881131351
-0.052955042571 0.058265201747 0.49247872829
-0.04783282429 0.057397529483 0.4919347167
-0.042375430465 0.056469641626 0.49041628838
-0.038257159293 0.055048082024 0.49181327224
-0.038994800299 0.056331202388 0.49217945337
-0.035024974495 0.053850509226 0.49246153235
-0.16772171855 0.047935064882 0.46089738607
-0.15560753644 0.049529824406 0.46982121468
-0.1488545984 0.050607845187 0.47648352385
-0.14428201318 0.049780674279 0.47763371468
-0.14098450541 0.049035578966 0.47884204984
-0.13662956655 0.04966390878 0.48003041744
-0.13558809459 0.052678719163 0.48440158367
-0.13366225362 0.054107058793 0.48596918583
-0.1315972805 0.054800931364 0.48664551973
-0.12668861449 0.054119579494 0.48742774129
-0.11951874197 0.051073007286 0.48686689138
-0.11173380166 0.050045572221 0.48703116179
-0.10897769034 0.04966179654 0.48866119981
-0.10517830402 0.050057332963 0.48878741264
-0.1037510857 0.050782170147 0.49019214511
-0.10283333808 0.050883915275 0.4915536046
-0.097392953932 0.049445573241 0.49001014233
-0.094379082322 0.049752615392 0.49090331793
-0.08956502378 0.04971517995 0.49220913649
-0.087427511811 0.049617346376 0.49303421378
-0.082446210086 0.04788691178 0.49196395278
-0.081342861056 0.049614824355 0.49361342192
-0.079338401556 0.049465570599 0.49511149526
-0.077741056681 0.050499752164 0.49682292342
-0.070628300309 0.050857607275 0.49869725108
-0.055527899414 0.051436733454 0.50273555517
-0.063699416816 0.058132451028 0.49919897318
-0.062523335218 0.058900587261 0.49606814981
-0.066054105759 0.058413401246 0.494792521
-0.058962095529 0.058665119112 0.49588015676
-0.055910661817 0.057665329427 0.49012431502
-0.058045979589 0.059424702078 0.49357917905
-0.04812162742 0.059403751045 0.48812493682
-0.045133996755 0.054356973618 0.48726928234
-0.047732044011 0.060350574553 0.4925648272
-0.046793960035 0.058223765343 0.49271941185
-0.040822807699 0.059046305716 0.4924684763
-0.037116184831 0.057050697505 0.49151211977
-0.033198874444 0.055444456637 0.49215990305
-0.031396307051 0.056082129478 0.49221649766
-0.1534345299 0.051272135228 0.47325509787
-0.12921902537 0.055786177516 0.48644438386
-0.1271507591 0.055227022618 0.48746448755
-0.12369140983 0.053416050971 0.48699390888
-0.11985503882 0.052969347686 0.4888804853
-0.1175571233 0.053176101297 0.48903754354
-0.11531060934 0.052116457373 0.49042648077
-0.11228618771 0.052519157529 0.49112862349
-0.10752418637 0.051055695862 0.48997700214
-0.10692305118 0.052040245384 0.49225535989
-0.10512903333 0.052613295615 0.49268603325
-0.10237463564 0.053194537759 0.49436050653
-0.099287293851 0.052739899606 0.49387273192
-0.095933578908 0.052095502615 0.49460753798
-0.095593124628 0.052013970912 0.49597465992
-0.093676552176 0.052443917841 0.49681037664
-0.090730972588 0.053986869752 0.49776557088
-0.086894474924 0.052055567503 0.49703872204
-0.085492908955 0.05309337005 0.49911350012
-0.082466393709 0.051590759307 0.49827474356
-0.078441627324 0.052005723119 0.49918997288
-0.074316993356 0.05264043808 0.50006604195
-0.071510821581 0.050905514508 0.49908423424
-0.069080017507 0.052030868828 0.50025236607
-0.062212582678 0.052210379392 0.50056511164
-0.055565718561 0.056645989418 0.5031003356
-0.058379422873 0.061979744583 0.5026550293
-0.060665100813 0.063835732639 0.49561330676
-0.061059582978 0.060124322772 0.49319943786
-0.055442858487 0.059179071337 0.49225732684
-0.05603614077 0.061203960329 0.49400573969
-0.053789366037 0.060208827257 0.4904012084
-0.052135955542 0.060383684933 0.4940007925
-0.047826740891 0.060624100268 0.49056091905
-0.046341128647 0.062253855169 0.49129316211
-0.041603911668 0.058570705354 0.49011072516
-0.040259759873 0.058858208358 0.49091187119
-0.043006900698 0.060951583087 0.49271732569
-0.035864293575 0.05766184628 0.49256050587
-0.03341281414 0.057363647968 0.49319475889
-0.16885957122 0.052890341729 0.466948241
-0.17002658546 0.05637634173 0.47131302953
-0.16545210779 0.055538274348 0.47314319015
-0.15917150676 0.057162996382 0.47630241513
-0.14803950489 0.056886296719 0.48044919968
-0.1458017081 0.05446510762 0.48125502467
-0.14307038486 0.057720702142 0.48309338093
-0.13768015802 0.057924669236 0.48493528366
-0.13592198491 0.057456258684 0.48557841778
-0.12994797528 0.057810593396 0.48772439361
-0.12672503293 0.057803522795 0.48828807473
-0.12475641072 0.055880315602 0.48935255408
-0.12136684358 0.0568376109 0.489990592
-0.11748056114 0.054407186806 0.49065601826
-0.11581001431 0.054445572197 0.49160820246
-0.11426965147 0.055558353662 0.49268844724
-0.11135397106 0.053937669843 0.49228468537
-0.10892101377 0.056260801852 0.49352434278
-0.10690725595 0.054511576891 0.4937698245
-0.10465347767 0.056091219187 0.49450850487
-0.1002388224 0.05467088148 0.49550521374
-0.098604440689 0.054410457611 0.4962130785
-0.095718324184 0.054012801498 0.49667954445
-0.093323022127 0.054467156529 0.49746385217
-0.090791933239 0.055850874633 0.49898457527
-0.088381119072 0.053278330714 0.49844816327
-0.08667576313 0.054611749947 0.49991866946
-0.083559215069 0.054236482829 0.50021600723
-0.080294199288 0.055148612708 0.50235188007
-0.076734475791 0.054770927876 0.50209212303
-0.073901340365 0.054495669901 0.50221526623
-0.058953382075 0.061058674008 0.50223147869
-0.059673406184 0.063784763217 0.50087797642
-0.059467945248 0.0635779351 0.49699598551
-0.058838170022 0.061092931777 0.49277597666
-0.052997894585 0.05795827508 0.49196019769
-0.051279190928 0.061469897628 0.49272164702
-0.047025613487 0.061003435403 0.488856107
-0.046190809458 0.060733243823 0.48882105947
-0.042501311749 0.059712503105 0.48962295055
-0.038820587099 0.058993015438 0.49120378494
-0.037523634732 0.059150755405 0.49200439453
-0.034255649894 0.059285771102 0.49234938622
-0.18281564116 0.050848912448 0.45796045661
-0.17481136322 0.054966509342 0.46685808897
-0.15651677549 0.058327876031 0.47757562995
-0.15101613104 0.059880148619 0.47982564569
-0.14920423925 0.061153642833 0.47879207134
-0.14565531909 0.060927368701 0.48084762692
-0.14416249096 0.058997154236 0.48206835985
-0.13783864677 0.059561800212 0.48299285769
-0.13333924115 0.05772203207 0.48711878061
-0.12914216518 0.05943968147 0.48683920503
-0.12652572989 0.06022535637 0.48819977045
-0.12365206331 0.059577457607 0.48880520463
-0.12105484307 0.05860177055 0.48878198862
-0.11914294213 0.057395521551 0.49016404152
-0.11673852056 0.055752344429 0.4917383492
-0.11375455558 0.057709697634 0.49094450474
-0.11135665327 0.056685004383 0.49358025193
-0.1084311083 0.058462213725 0.4933578372
-0.10615650564 0.057600732893 0.49405482411
-0.10250321776 0.055820010602 0.49505135417
-0.10064717382 0.056561958045 0.4960321188
-0.098742954433 0.056615136564 0.49767974019
-0.096465572715 0.055578816682 0.49726399779
-0.093919374049 0.055916350335 0.49863240123
-0.090471975505 0.055845096707 0.49779194593
-0.089078381658 0.056775689125 0.49928298593
-0.085364453495 0.055539160967 0.50032097101
-0.083414755762 0.056081242859 0.50086075068
-0.080161847174 0.053641803563 0.50054073334
-0.074465483427 0.057721484452 0.5025524497
-0.056744389236 0.059718783945 0.50385671854
-0.059387583286 0.060217000544 0.49935916066
-0.06047385186 0.061986323446 0.49549534917
-0.071064479649 0.060087848455 0.49759072065
-0.054229665548 0.059530358762 0.49530211091
-0.058646831661 0.060395300388 0.49566784501
-0.048541430384 0.06142386049 0.48698157072
-0.044069074094 0.060455154628 0.48890247941
-0.043328545988 0.060442313552 0.49227005243
-0.041219893843 0.062417708337 0.49082943797
-0.041167791933 0.062441594899 0.49191239476
-0.03461542353 0.060569193214 0.49170449376
-0.18354447186 0.056401237845 0.46363523602
-0.17987312376 0.057480201125 0.46753507853
-0.17836844921 0.059699721634 0.47067153454
-0.17616955936 0.061821140349 0.47136411071
-0.17175211012 0.060450263321 0.47222280502
-0.16872945428 0.060038551688 0.4740165174
-0.1658230722 0.060071133077 0.47526961565
-0.15988469124 0.059351839125 0.47703552246
-0.15422470868 0.059917792678 0.47835761309
-0.13971203566 0.058966621757 0.4828735888
-0.12979775667 0.061427555978 0.48417666554
-0.12786538899 0.059888422489 0.48623809218
-0.12080713362 0.060296148062 0.48970925808
-0.11693423986 0.05785824731 0.49067541957
-0.11145440489 0.058537393808 0.49405512214
-0.10853295773 0.059256628156 0.49257352948
-0.1048341915 0.058585368097 0.49277064204
-0.10138908029 0.057969491929 0.49660262465
-0.099044241011 0.055933915079 0.49635481834
-0.095904678106 0.057865727693 0.49665719271
-0.092109508812 0.058169782162 0.4984433949
-0.086780428886 0.059025228024 0.49921876192
-0.086092635989 0.060630649328 0.49820575118
-0.082352608442 0.060207478702 0.50027614832
-0.080209575593 0.058018527925 0.50254011154
-0.076902098954 0.05884694308 0.50386053324
-0.069582343102 0.056537952274 0.50529229641
-0.055121786892 0.061421528459 0.50497800112
-0.052835866809 0.06214530021 0.50303161144
-0.056982193142 0.062124870718 0.50142252445
-0.058472778648 0.063413187861 0.50039798021
-0.058886364102 0.0645192191 0.49450203776
-0.056204162538 0.064199350774 0.49484589696
-0.053876955062 0.061433918774 0.49493810534
-0.049995493144 0.06056650728 0.49076107144
-0.046744029969 0.062630414963 0.48952275515
-0.0463956967 0.060468912125 0.49436283112
-0.040316209197 0.063942179084 0.49075722694
-0.037165697664 0.062020312995 0.49115020037
-0.035403177142 0.062760993838 0.49116668105
-0.03089235723 0.060711473227 0.49129751325
-0.18604597449 0.062045644969 0.46863621473
-0.17639274895 0.06046936661 0.47116938233
-0.17321185768 0.060801353306 0.47283571959
-0.16656070948 0.061400741339 0.47365015745
-0.16178832948 0.060646895319 0.47559142113
-0.15807685256 0.061512921005 0.4752792716
-0.14042979479 0.059994835407 0.47943404317
-0.13028568029 0.062829203904 0.4808011651
-0.13037526608 0.058394152671 0.48474913836
-0.12414906174 0.062994718552 0.48423621058
-0.12232857943 0.060795083642 0.48801681399
-0.11768668145 0.059883575886 0.48914012313
-0.10902731121 0.06099101156 0.49041268229
-0.10657932609 0.063546128571 0.48861905932
-0.098287925124 0.058961030096 0.49607911706
-0.093883827329 0.062079392374 0.49444499612
-0.076088786125 0.062319375575 0.50193351507
-0.085155718029 0.056374169886 0.49552762508
-0.069026648998 0.059351466596 0.5061724782
-0.050325173885 0.062734387815 0.50195974112
-0.055088795722 0.064778417349 0.50052535534
-0.058559712023 0.059109877795 0.50030171871
-0.064331911504 0.063227914274 0.49628311396
-0.05800813064 0.064625553787 0.49626484513
-0.050042990595 0.063709527254 0.49245160818
-0.050301812589 0.061490409076 0.49584788084
-0.048984196037 0.064039483666 0.49052768946
-0.04603208974 0.06254093349 0.49269384146
-0.047103155404 0.062686145306 0.49443548918
-0.039562098682 0.064819894731 0.48902794719
-0.036100443453 0.064107209444 0.48943269253
-0.034064088017 0.064003102481 0.48941421509
-0.03179750964 0.061567135155 0.49133479595
-0.19156746566 0.064588062465 0.46735826135
-0.18871033192 0.064536102116 0.46799516678
-0.1868584156 0.06404799968 0.46854126453
-0.18374167383 0.062855988741 0.4682854414
-0.18123528361 0.063873663545 0.46971923113
-0.17760936916 0.063854888082 0.4685908258
-0.1698718518 0.063975743949 0.46777948737
-0.066963277757 0.062004182488 0.50451397896
-0.0530311279 0.063590139151 0.50261873007
-0.051352128386 0.06361733377 0.50207722187
-0.058969199657 0.064878761768 0.50259238482
-0.056611821055 0.065835267305 0.49975574017
-0.06836245209 0.067713625729 0.49891290069
-0.054934266955 0.061675585806 0.49623855948
-0.062150452286 0.063931919634 0.49453145266
-0.052806295455 0.068012051284 0.49489808083
-0.048657737672 0.065379783511 0.49072137475
-0.049642786384 0.060284055769 0.49621751904
-0.037453565747 0.064747788012 0.48917531967
-0.03528740257 0.065817832947 0.48967275023
-0.032711472362 0.065522782505 0.48960798979
-0.03189310804 0.063965752721 0.49100202322
-0.19388760626 0.065191663802 0.46665528417
-0.19196493924 0.06613239646 0.46631905437
-0.18937723339 0.065834082663 0.46716463566
-0.18712972105 0.065978065133 0.46751725674
-0.18448576331 0.067659266293 0.46720430255
-0.183348611 0.064370594919 0.46969088912
-0.18065071106 0.06467461586 0.4676926434
-0.17800095677 0.063517391682 0.46895509958
-0.17774806917 0.062426250428 0.46827101707
-0.17388318479 0.063861042261 0.46697980165
-0.050916433334 0.066123589873 0.50371050835
-0.050703894347 0.065393693745 0.50142520666
-0.060299962759 0.06408854574 0.49975585938
-0.064848408103 0.063051573932 0.50048744678
-0.055508386344 0.068868294358 0.4931024313
-0.054133072495 0.066798686981 0.49143889546
-0.052496898919 0.062848858535 0.49444019794
-0.047130148858 0.064613170922 0.4936785996
-0.041149985045 0.064711607993 0.48981487751
-0.036305759102 0.067154847085 0.48871105909
-0.034634012729 0.068286791444 0.48936378956
-0.19370238483 0.067408129573 0.46594664454
-0.19269353151 0.069156080484 0.46407696605
-0.19174352288 0.06670589 0.46428596973
-0.18952390552 0.068007752299 0.46563744545
-0.18896600604 0.063924983144 0.46647435427
-0.18622386456 0.06946592778 0.46155697107
-0.1844779104 0.064315102994 0.46662652493
-0.18178226054 0.065956369042 0.46452409029
-0.18284995854 0.064367346466 0.46432811022
-0.1817381531 0.065350659192 0.46103996038
-0.052092965692 0.066908739507 0.49929329753
-0.059939444065 0.068121470511 0.50131505728
-0.054440561682 0.070081539452 0.48879864812
-0.0503635481 0.069275587797 0.49386280775
-0.054201029241 0.06457953155 0.49559557438
-0.050394106656 0.06525285542 0.49497038126
-0.046777866781 0.069931037724 0.49317148328
-0.1968088001 0.067683830857 0.46523800492
-0.18991419673 0.069894917309 0.462900877
-0.18945635855 0.069556899369 0.46193259954
-0.18859170377 0.065526634455 0.46243837476
-0.058291584253 0.066831670702 0.50276386738
-0.06038852036 0.067105196416 0.49887165427
-0.067565046251 0.065933212638 0.49720445275
-0.058837920427 0.071021057665 0.49764963984
-0.054338324815 0.066638685763 0.48559182882
-0.049511741847 0.065534316003 0.48932808638
-0.04830115661 0.066133186221 0.49363604188
-0.042951423675 0.070596672595 0.48816287518
-0.031554568559 0.069904342294 0.48991420865
-0.19808401167 0.06910160929 0.46518132091
-0.19549171627 0.070660479367 0.46387594938
-0.19279888272 0.070625156164 0.46293503046
-0.19237245619 0.070903778076 0.4610337317
-0.18859900534 0.068259365857 0.46088466048
-0.18355330825 0.079205863178 0.46499800682
-0.047487422824 0.071735419333 0.50010758638
-0.054695848376 0.069759532809 0.50254505873
-0.053725279868 0.069920152426 0.4934887588
-0.054574556649 0.070913948119 0.49555295706
-0.058364685625 0.067466422915 0.49763044715
-0.055143516511 0.067392848432 0.49370083213
-0.04697792232 0.070374667645 0.4895246923
-0.043899834156 0.07012283057 0.49014857411
-0.040245033801 0.069169230759 0.48919266462
-0.039378810674 0.070300772786 0.4904178679
-0.034569200128 0.070647038519 0.48997578025
-0.033712506294 0.071822240949 0.49167004228
-0.03122660704 0.070797547698 0.49173533916
-0.19739480317 0.07233800739 0.46437719464
-0.19798354805 0.075187854469 0.46255153418
-0.19428242743 0.072492666543 0.46189796925
-0.19176068902 0.072687491775 0.4621989429
-0.10923718661 0.069283716381 0.492631495
-0.062703296542 0.067278288305 0.50588554144
-0.057975742966 0.070200383663 0.4985178113
-0.058158773929 0.070327155292 0.49603712559
-0.063143953681 0.073064677417 0.4947770834
-0.053064819425 0.072109766304 0.48856726289
-0.061600849032 0.071942426264 0.49832084775
-0.051167279482 0.071235880256 0.49360778928
-0.057102285326 0.064020350575 0.49312987924
-0.043910782784 0.072258263826 0.48804357648
-0.039763972163 0.074502915144 0.48847338557
-0.03720260039 0.073921360075 0.48997280002
-0.034546863288 0.073169581592 0.48974695802
-0.19143168628 0.074223220348 0.46125400066
-0.18841250241 0.07361574471 0.460177809
-0.18930533528 0.072978049517 0.45968207717
-0.05075358972 0.075241819024 0.50307106972
-0.051654003561 0.074254088104 0.5033749938
-0.057510092854 0.070625737309 0.49901074171
-0.061968807131 0.068187661469 0.49839779735
-0.054743561894 0.075882188976 0.49331903458
-0.070829533041 0.07314414531 0.49118691683
-0.054161332548 0.075125820935 0.49482521415
-0.056790187955 0.069345206022 0.49290925264
-0.048386301845 0.073880672455 0.49060738087
-0.048895929009 0.072120912373 0.4942804873
-0.045077409595 0.075228139758 0.49231925607
-0.035222966224 0.075763985515 0.48928299546
-0.035075750202 0.074471749365 0.49046674371
-0.033337749541 0.07502336055 0.49174499512
-0.19184784591 0.07478800416 0.46266928315
-0.19316267967 0.074058383703 0.46181371808
-0.18490000069 0.079638838768 0.46366673708
-0.12617784739 0.072525821626 0.47826042771
-0.062472403049 0.075031869113 0.49699819088
-0.066206678748 0.074355006218 0.49391406775
-0.064493626356 0.067026980221 0.49493730068
-0.067160524428 0.068716838956 0.49573388696
-0.060712099075 0.072890684009 0.49425211549
-0.056825671345 0.073533371091 0.49794563651
-0.059592988342 0.068565815687 0.49418362975
-0.051027230918 0.069754935801 0.49086508155
-0.046430140734 0.075854577124 0.48963788152
-0.04344452545 0.074347995222 0.48992976546
-0.034654609859 0.077711418271 0.49075183272
-0.032199606299 0.076778404415 0.49023258686
-0.029898352921 0.076489113271 0.49147877097
-0.11849917471 0.069204449654 0.48537012935
-0.062996387482 0.073215223849 0.50479465723
-0.055315490812 0.07367426157 0.50318080187
-0.059484202415 0.074001535773 0.50199043751
-0.062981314957 0.071984194219 0.49751216173
-0.061923831701 0.073001012206 0.4952006042
-0.058627344668 0.076579146087 0.49025389552
-0.058322347701 0.073713697493 0.49612513185
-0.049763638526 0.080707959831 0.4917447269
-0.048576690257 0.076950885355 0.49230954051
-0.046215731651 0.078942596912 0.49306640029
-0.036091886461 0.078307986259 0.48966020346
-0.033023733646 0.079728111625 0.49121969938
-0.079003043473 0.069439314306 0.50216406584
-0.054744783789 0.077734060585 0.50411248207
-0.060716368258 0.074550144374 0.49946245551
-0.063970990479 0.077046588063 0.49449631572
-0.062821835279 0.07260748744 0.49140420556
-0.056746900082 0.079918183386 0.49399068952
-0.057011846453 0.079351216555 0.48893848062
-0.050927348435 0.078275643289 0.49452674389
-0.053230714053 0.083162039518 0.4937556088
-0.053010210395 0.075087107718 0.49250513315
-0.046847563237 0.082181654871 0.49281716347
-0.043141499162 0.079676315188 0.4888522923
-0.041301250458 0.0804496333 0.48933252692
-0.030713021755 0.079000785947 0.49234136939
-0.12363823503 0.077021196485 0.4906244874
-0.1198104918 0.075565777719 0.49077832699
-0.065283074975 0.072387047112 0.50215941668
-0.054186251014 0.07764326036 0.50509363413
-0.052712779492 0.07769485563 0.50385165215
-0.058706138283 0.076748348773 0.50191044807
-0.061228476465 0.0798734501 0.49801671505
-0.057602506131 0.078922986984 0.49724009633
-0.063116177917 0.081912219524 0.49242937565
-0.060205541551 0.082349330187 0.48997372389
-0.054756779224 0.080050468445 0.49546638131
-0.054764702916 0.078762106597 0.49240663648
-0.053947653621 0.077505104244 0.49926865101
-0.048450745642 0.080057092011 0.49330121279
-0.050236947834 0.08167950809 0.49687555432
-0.038838807493 0.081548959017 0.48918744922
-0.033513434231 0.082695133984 0.49210509658
-0.1638520509 0.083008512855 0.47657099366
-0.16284194589 0.084658659995 0.47608083487
-0.15592348576 0.088981509209 0.47801095247
-0.15766753256 0.085854932666 0.47316247225
-0.065011061728 0.075871318579 0.50448614359
-0.052486937493 0.079367600381 0.5049405098
-0.058783277869 0.075107961893 0.5046312809
-0.059569701552 0.085285015404 0.49960425496
-0.058934651315 0.083685196936 0.49880558252
-0.063462711871 0.074435204268 0.49328434467
-0.060153730214 0.083364956081 0.48759931326
-0.054923590273 0.083310455084 0.4959641993
-0.055245965719 0.083641685545 0.48987978697
-0.05379191041 0.078644908965 0.49545142055
-0.045322850347 0.083071678877 0.48922875524
-0.047891158611 0.082439050078 0.4966584146
-0.042448390275 0.082024268806 0.49114465714
-0.034407958388 0.083237223327 0.4907437861
-0.16421239078 0.083998888731 0.4770988822
-0.15872459114 0.086020380259 0.47720369697
-0.15546013415 0.087955854833 0.47744968534
-0.072322800756 0.081863634288 0.50364232063
-0.075195290148 0.080985508859 0.50322800875
-0.068996578455 0.081368505955 0.50047135353
-0.060567848384 0.080448910594 0.50504851341
-0.054677128792 0.080344475806 0.50533741713
-0.05557256192 0.080583311617 0.50385439396
-0.056563768536 0.085226520896 0.50220328569
-0.05821352452 0.082116484642 0.49833330512
-0.061301060021 0.081523634493 0.49740198255
-0.056328903884 0.084264606237 0.49636042118
-0.057488184422 0.083000980318 0.48774144053
-0.054222352803 0.087054751813 0.49508276582
-0.04998414591 0.085801012814 0.49184122682
-0.052401568741 0.088996201754 0.49460595846
-0.048235412687 0.088749833405 0.49238997698
-0.04321276024 0.083079054952 0.49126383662
-0.033718407154 0.086040459573 0.49158138037
-0.18824633956 0.080021068454 0.47366029024
-0.16044899821 0.085405163467 0.47797009349
-0.15650200844 0.086296759546 0.47880002856
-0.1539555043 0.095366947353 0.48377552629
-0.15211388469 0.093993201852 0.47910767794
-0.070003338158 0.08379521966 0.50332295895
-0.071203991771 0.081775121391 0.50232636929
-0.063817381859 0.081509061158 0.49716424942
-0.067507594824 0.077082507312 0.50256866217
-0.050740581006 0.082067795098 0.50432270765
-0.056129157543 0.081840023398 0.5022495985
-0.057373285294 0.08785315603 0.49628248811
-0.059725467116 0.085057668388 0.49837079644
-0.05407717824 0.088469825685 0.49387484789
-0.054014354944 0.0876705423 0.4968714416
-0.054359909147 0.086046881974 0.49274846911
-0.050609339029 0.088976435363 0.48954585195
-0.05189204216 0.084782637656 0.49648085237
-0.045024719089 0.09117411077 0.49225023389
-0.040373381227 0.087541282177 0.49013075233
-0.036868192255 0.087061010301 0.4910172224
-0.031383119524 0.085340507329 0.49166473746
-0.16219957173 0.085275657475 0.47921770811
-0.15117125213 0.093161463737 0.48181605339
-0.13688537478 0.088498868048 0.48339265585
-0.13166637719 0.085888959467 0.4864064455
-0.073775328696 0.082721322775 0.50866097212
-0.073361732066 0.082880169153 0.50736147165
-0.059098154306 0.082687810063 0.50309532881
-0.052337750793 0.083543106914 0.5029078722
-0.05673039332 0.08957207948 0.49830272794
-0.058924481273 0.085553087294 0.49490603805
-0.059290040284 0.088123001158 0.49450415373
-0.058699145913 0.088000737131 0.49180567265
-0.055520828813 0.084824316204 0.49199169874
-0.05182043463 0.089054696262 0.48972040415
-0.050615631044 0.084232114255 0.49252831936
-0.048526097089 0.08359169215 0.49313789606
-0.035496849567 0.088920690119 0.49094614387
-0.032474584877 0.087973095477 0.49124312401
-0.15590164065 0.08595161885 0.47847002745
-0.14308705926 0.088843695819 0.47900494933
-0.059378400445 0.085111893713 0.50677663088
-0.052811916918 0.084761820734 0.50437802076
-0.053932536393 0.084734268486 0.50292295218
-0.059290669858 0.088682673872 0.49585804343
-0.055782672018 0.090383812785 0.49085587263
-0.051470104605 0.087499372661 0.49322229624
-0.051979854703 0.087904348969 0.49719068408
-0.04707878828 0.090451180935 0.48815101385
-0.049369983375 0.090135462582 0.49029225111
-0.044832356274 0.091328255832 0.48982858658
-0.030514685437 0.088116087019 0.4915843606
-0.19293011725 0.08649520576 0.46714228392
-0.14325512946 0.087926343083 0.4759170711
-0.14030021429 0.08874297142 0.48189237714
-0.069110006094 0.087077669799 0.50336807966
-0.06890719384 0.087321281433 0.50393855572
-0.053049560636 0.086858265102 0.50507605076
-0.054970446974 0.091484092176 0.50062197447
-0.05785664916 0.092574372888 0.49631223083
-0.057844385505 0.091487534344 0.49551576376
-0.06145574525 0.093025505543 0.49454569817
-0.058914229274 0.08824852854 0.49029046297
-0.051567886025 0.091591574252 0.49101349711
-0.05289663747 0.093260861933 0.49110510945
-0.051309432834 0.090928211808 0.49468052387
-0.052666354924 0.089700289071 0.4909850359
-0.04849897325 0.093825161457 0.49386465549
-0.040492519736 0.089686825871 0.48974868655
-0.03322384879 0.091924674809 0.49086809158
-0.029300864786 0.089744240046 0.49165678024
-0.14245772362 0.088251248002 0.47753423452
-0.14235143363 0.091523870826 0.48163124919
-0.059135410935 0.087198592722 0.50424915552
-0.052218858153 0.089370660484 0.50447356701
-0.052033942193 0.086653895676 0.50443387032
-0.053961522877 0.087815657258 0.50240272284
-0.05891579017 0.093043118715 0.49821558595
-0.056410141289 0.094888143241 0.49736905098
-0.054557878524 0.092456765473 0.49353435636
-0.058672156185 0.092348910868 0.48951303959
-0.053213506937 0.094590432942 0.49172824621
-0.048938762397 0.093467690051 0.48884391785
-0.052760340273 0.091714672744 0.49793109298
-0.045996058732 0.094248183072 0.49258121848
-0.040402717888 0.094425432384 0.4897018671
-0.033738981932 0.092379644513 0.49049040675
-0.032742872834 0.092958003283 0.49155542254
-0.19849725068 0.094727568328 0.46305656433
-0.19585478306 0.094165794551 0.46269565821
-0.19473338127 0.095414474607 0.4608554244
-0.18607597053 0.086287260056 0.47070252895
-0.14197693765 0.087088130414 0.47733047605
-0.14220881462 0.090819224715 0.48368671536
-0.064988873899 0.08779797703 0.5043489933
-0.066088989377 0.087157569826 0.5043374896
-0.063413530588 0.08621186018 0.50345134735
-0.062395568937 0.087590523064 0.50250691175
-0.059894613922 0.08785007894 0.50230109692
-0.052440997213 0.090426765382 0.50487655401
-0.056397505105 0.095992431045 0.49876344204
-0.0565026775 0.095819182694 0.49528366327
-0.05848107487 0.098346456885 0.49651747942
-0.055936258286 0.093435034156 0.48910346627
-0.056905720383 0.095756836236 0.49313539267
-0.052397515625 0.093549884856 0.49269729853
-0.051528826356 0.093449354172 0.49072763324
-0.05125336349 0.092691451311 0.48907285929
-0.048818897456 0.091171361506 0.49376171827
-0.038593348116 0.094705112278 0.49001914263
-0.034565586597 0.093685291708 0.49038562179
-0.033274106681 0.094534978271 0.4910338521
-0.030665079132 0.093136116862 0.49207669497
-0.029201710597 0.09321552515 0.49284911156
-0.20468749106 0.091387212276 0.45564574003
-0.19626444578 0.097342438996 0.46179780364
-0.1908391118 0.095012173057 0.46174925566
-0.14319765568 0.091754958034 0.48350179195
-0.072241358459 0.089816056192 0.50877594948
-0.064371615648 0.088758945465 0.50485301018
-0.05570910126 0.093514807522 0.50523626804
-0.052796497941 0.092987015843 0.5038870573
-0.049418922514 0.090297877789 0.50359976292
-0.053523864597 0.094489939511 0.50049841404
-0.059458382428 0.094753876328 0.49742200971
-0.054988324642 0.098265767097 0.49283766747
-0.05999173969 0.090577289462 0.49499812722
-0.054088469595 0.096087284386 0.49504470825
-0.054361537099 0.095659546554 0.49085223675
-0.052104458213 0.097038269043 0.49569442868
-0.051350127906 0.094505988061 0.49208495021
-0.044891480356 0.094383120537 0.48849537969
-0.047360453755 0.099156625569 0.493534863
-0.029416367412 0.094983763993 0.49204277992
-0.20131027699 0.098855398595 0.46163567901
-0.1986874342 0.098887398839 0.46275487542
-0.19697915018 0.098139472306 0.46211019158
-0.19399932027 0.099415652454 0.45892000198
-0.1870894134 0.091335862875 0.46670985222
-0.14985984564 0.092134401202 0.48268049955
-0.071146003902 0.090440683067 0.51041895151
-0.065121307969 0.088575124741 0.50475108624
-0.063784018159 0.089839987457 0.50377833843
-0.063801527023 0.087695233524 0.50269657373
-0.061663102359 0.089229732752 0.50193595886
-0.049087058753 0.093500293791 0.50504422188
-0.054413180798 0.096273876727 0.50249624252
-0.057855956256 0.10144498199 0.49874213338
-0.062065504491 0.094378829002 0.49502927065
-0.058306429535 0.098210327327 0.49483919144
-0.059295695275 0.093818582594 0.4922183454
-0.054520443082 0.09366928786 0.49111354351
-0.053567782044 0.09508381784 0.49381104112
-0.062449522316 0.093766219914 0.49173992872
-0.04642315954 0.097057916224 0.48826479912
-0.043559875339 0.097340397537 0.48849457502
-0.035315643996 0.097220420837 0.4916216433
-0.030632991344 0.096145153046 0.49153631926
-0.20308947563 0.097074486315 0.4586058259
-0.19498574734 0.10200792551 0.46050322056
-0.18836891651 0.095287628472 0.46406468749
-0.07140352577 0.091560214758 0.50854325294
-0.071041867137 0.091872043908 0.50819247961
-0.070617675781 0.090768501163 0.50980871916
-0.07007034868 0.090793408453 0.50681525469
-0.068489670753 0.090990930796 0.5079215169
-0.066274568439 0.091143198311 0.50634604692
-0.06414707005 0.08934597671 0.50421971083
-0.063403479755 0.091882050037 0.50378793478
-0.059371754527 0.095151796937 0.50462144613
-0.052156817168 0.095232248306 0.50478243828
-0.054494649172 0.09757707268 0.50249141455
-0.057601176202 0.097661212087 0.49824184179
-0.05538873747 0.098972164094 0.49255281687
-0.057254057378 0.099527940154 0.49111992121
-0.055744886398 0.10059306771 0.48957207799
-0.049804516137 0.10039479285 0.49271813035
-0.053345151246 0.096967630088 0.49154886603
-0.050254512578 0.098977439106 0.49210330844
-0.046815063804 0.099898852408 0.49102309346
-0.044610027224 0.10197334737 0.49151653051
-0.040951851755 0.099742144346 0.49072957039
-0.029860053211 0.097509086132 0.49236059189
-0.20065520704 0.10204952955 0.46128597856
-0.19682911038 0.10489694029 0.46181491017
-0.19330705702 0.10279129446 0.45843014121
-0.18478506804 0.098233364522 0.46216922998
-0.17450141907 0.097716279328 0.47662249207
-0.093089438975 0.094123020768 0.49260401726
-0.070508904755 0.092295750976 0.50703585148
-0.068890713155 0.092199034989 0.50711876154
-0.068551845849 0.094261988997 0.50757539272
-0.065954618156 0.091816961765 0.50654375553
-0.064334310591 0.091756813228 0.50299757719
-0.05775282532 0.09623721242 0.50512552261
-0.05262517184 0.096353292465 0.50406610966
-0.054464273155 0.10030415654 0.50272893906
-0.05784938857 0.10324643552 0.49624675512
-0.057227890939 0.1013430506 0.4931243062
-0.059748470783 0.10077294707 0.49055567384
-0.053038772196 0.098854482174 0.49133908749
-0.057881046087 0.10207924247 0.49001896381
-0.051447447389 0.099773280323 0.49110031128
-0.052690226585 0.098753191531 0.48794698715
-0.050140224397 0.10078021884 0.4880720675
-0.0485794954 0.096126362681 0.49044910073
-0.040490124375 0.098354712129 0.48980945349
-0.036048807204 0.10054672509 0.49180227518
-0.031827911735 0.10004432499 0.49161270261
-0.029077859595 0.09967648983 0.49266847968
-0.19628104568 0.10456178337 0.46190795302
-0.19835993648 0.10377340019 0.46244424582
-0.1935275197 0.10460329801 0.45977574587
-0.19513693452 0.10583964735 0.4588008821
-0.18646936119 0.10511240363 0.45973235369
-0.17916947603 0.093962520361 0.46616134048
-0.10025855899 0.092696577311 0.49536886811
-0.070735007524 0.094561904669 0.50431019068
-0.069528244436 0.093165740371 0.50774741173
-0.072473488748 0.093001753092 0.50377261639
-0.065529800951 0.092159152031 0.50676292181
-0.064515940845 0.093418441713 0.5060300231
-0.064424522221 0.092064894736 0.50451397896
-0.065686792135 0.090244606137 0.50000584126
-0.063164889812 0.092680104077 0.50327146053
-0.062599420547 0.092331163585 0.50256443024
-0.059235896915 0.096799492836 0.50457370281
-0.052829019725 0.098100207746 0.50501590967
-0.048355542123 0.098603501916 0.50277447701
-0.055346645415 0.10452833772 0.50246429443
-0.056252840906 0.10338597745 0.49738776684
-0.060242295265 0.10237864405 0.49559593201
-0.054848212749 0.10161329806 0.49375429749
-0.058336641639 0.097095675766 0.49095672369
-0.053625486791 0.1014527604 0.49302279949
-0.05145881325 0.10082621872 0.49496680498
-0.049913335592 0.097988568246 0.49143519998
-0.047192834318 0.097942225635 0.49078017473
-0.041014354676 0.10263837129 0.49035257101
-0.038245957345 0.099944248796 0.49030268192
-0.0335024409 0.10220465809 0.49103930593
-0.19972375035 0.10466904193 0.46228355169
-0.19351474941 0.10742513835 0.45961302519
-0.10599475354 0.09381172806 0.49382317066
-0.079536929727 0.093427337706 0.50170367956
-0.076410055161 0.093932189047 0.50196456909
-0.068431474268 0.094748191535 0.5058324337
-0.071004793048 0.095254406333 0.50185745955
-0.064908407629 0.093153938651 0.50600087643
-0.065770074725 0.092914566398 0.49813842773
-0.063432715833 0.092759288847 0.50268244743
-0.063582681119 0.094419129193 0.50110059977
-0.062520578504 0.094729356468 0.50061035156
-0.061790179461 0.096696302295 0.50245028734
-0.061358008534 0.095133163035 0.50272721052
-0.058918379247 0.098524875939 0.50368094444
-0.049899172038 0.10046817362 0.50530552864
-0.052802480757 0.10294389725 0.50100672245
-0.055508416146 0.10490526259 0.49597099423
-0.05650191009 0.10550351441 0.49425691366
-0.05634002015 0.10426854342 0.48887419701
-0.054642375559 0.10299284011 0.48876067996
-0.055165935308 0.10321930051 0.48950979114
-0.051474612206 0.10329477489 0.48895794153
-0.050875276327 0.1016761288 0.48793780804
-0.03088468127 0.10247475654 0.49152636528
-0.19932439923 0.10752216727 0.46264261007
-0.19517193735 0.10880108923 0.4615278542
-0.19439995289 0.10917785019 0.46031242609
-0.19425733387 0.10994622111 0.45867949724
-0.10729517788 0.10273143649 0.49076804519
-0.098614066839 0.10033640265 0.48832896352
-0.088810883462 0.094956889749 0.49668571353
-0.074512206018 0.095120124519 0.50357615948
-0.073981143534 0.091964617372 0.50320756435
-0.074873648584 0.095208726823 0.49904936552
-0.072245143354 0.094947822392 0.49894040823
-0.064596109092 0.092191196978 0.50382232666
-0.063728772104 0.09677297622 0.50347465277
-0.061026986688 0.096604064107 0.50280755758
-0.05876114592 0.1001066491 0.50570309162
-0.055680185556 0.10114248842 0.50600898266
-0.045531503856 0.10334097594 0.50217479467
-0.056103456765 0.10422807187 0.49817121029
-0.058130115271 0.1047648266 0.49186325073
-0.055197011679 0.10727725923 0.49181738496
-0.053247742355 0.10410065204 0.49135062099
-0.052165515721 0.10292478651 0.49466505647
-0.047146447003 0.10359084606 0.4894195199
-0.052722696215 0.099879406393 0.49420654774
-0.048492640257 0.10259450227 0.49272504449
-0.033568222076 0.10512116551 0.49161377549
-0.032942134887 0.10487817228 0.49174025655
-0.19738410413 0.11248853058 0.46220272779
-0.19543924928 0.11218521744 0.46081253886
-0.19530120492 0.11063244194 0.46114501357
-0.10647148639 0.0992975384 0.49379688501
-0.09940392524 0.095984749496 0.49156674743
-0.093424938619 0.094147101045 0.49360969663
-0.070775568485 0.095117755234 0.50083512068
-0.068183124065 0.0939039886 0.50077712536
-0.065046921372 0.096227139235 0.5001257062
-0.061739727855 0.10061331093 0.50160878897
-0.060117907822 0.10058583319 0.5049701333
-0.057805959135 0.10253613442 0.50598633289
-0.045101862401 0.10538810492 0.5012062192
-0.049410510808 0.10548829287 0.50273948908
-0.053981818259 0.10752122104 0.49898949265
-0.058034196496 0.1060436368 0.49753892422
-0.057171590626 0.10420375317 0.49025908113
-0.056058164686 0.10826898366 0.4911352098
-0.05343247205 0.10495266318 0.493042171
-0.052714191377 0.10645514727 0.48829624057
-0.048947598785 0.10547964275 0.49394074082
-0.050535015762 0.10467036813 0.48897871375
-0.0483799465 0.1060275659 0.48964324594
-0.035741433501 0.10605688393 0.49190494418
-0.030832758173 0.10574219376 0.49213966727
-0.027572466061 0.10518983006 0.49294441938
-0.20111207664 0.10796672106 0.46196508408
-0.19660642743 0.11493285745 0.46202468872
-0.19586537778 0.11228770018 0.46154680848
-0.19671723247 0.11061693728 0.461286515
-0.10837381333 0.10907175392 0.4919205904
-0.10722423345 0.10266322643 0.49242934585
-0.096056386828 0.098088011146 0.49113291502
-0.090907894075 0.09511911869 0.49163964391
-0.071146421134 0.095863670111 0.50173169374
-0.063561096787 0.09834895283 0.50210791826
-0.062071535736 0.099884390831 0.50195127726
-0.060695245862 0.10051307827 0.50279217958
-0.059460993856 0.10387437791 0.50454896688
-0.049869406968 0.10405024141 0.50488322973
-0.054109398276 0.10686155409 0.5029836297
-0.058314014226 0.10471916944 0.49893042445
-0.056444250047 0.10958886147 0.49756020308
-0.055073276162 0.1102540493 0.49018594623
-0.053942594677 0.1066891402 0.49094006419
-0.050420258194 0.11029619724 0.49629631639
-0.050009220839 0.10820616037 0.49347439408
-0.047512382269 0.10611649603 0.49055984616
-0.046111814678 0.10360968858 0.49207991362
-0.044853873551 0.10718691349 0.49245002866
-0.033567242324 0.1083804518 0.49212053418
-0.028499081731 0.10709515959 0.49202844501
-0.19524167478 0.11530841142 0.46055427194
-0.18234343827 0.1109746173 0.4610247612
-0.10961224139 0.11345037073 0.49046370387
-0.11250513792 0.10891985148 0.49388837814
-0.1101962477 0.10555537045 0.49339729548
-0.10422234982 0.10508163273 0.48691487312
-0.063105523586 0.10245526582 0.50215911865
-0.059961259365 0.1026603654 0.50281482935
-0.058165758848 0.10509559512 0.50147634745
-0.050001572818 0.10580977798 0.50527685881
-0.049883358181 0.10627450794 0.50559663773
-0.054177127779 0.1059577167 0.5017323494
-0.056569322944 0.10867636651 0.49556800723
-0.055854894221 0.11192236841 0.49362561107
-0.053629491478 0.10900298506 0.49036797881
-0.051580514759 0.10946723819 0.49347731471
-0.048747565597 0.10873351246 0.49283605814
-0.04970940575 0.1085735485 0.49051508307
-0.034374434501 0.10955727845 0.49176299572
-0.030741604045 0.10806925595 0.49156716466
-0.19623219967 0.11938191205 0.46074032784
-0.19614730775 0.11603947729 0.46206891537
-0.19574652612 0.11574967951 0.46152922511
-0.1939945519 0.11711361259 0.45921057463
-0.11151794344 0.11236916482 0.49294868112
-0.10847235471 0.10842187703 0.48905995488
-0.094677716494 0.1041200757 0.48970982432
-0.062279723585 0.10172639787 0.50260156393
-0.06022644043 0.10466806591 0.50618451834
-0.04872944206 0.10945876688 0.50232732296
-0.054501019418 0.11036712676 0.49765092134
-0.054749574512 0.11059269309 0.49712106586
-0.055937755853 0.1110099107 0.49146094918
-0.052557822317 0.1113352105 0.49158349633
-0.050444368273 0.1116963774 0.4914149344
-0.047958809882 0.11147660762 0.49593645334
-0.045465510339 0.10993941128 0.49231129885
-0.051860731095 0.10762646049 0.49601429701
-0.047216638923 0.1111176312 0.49138343334
-0.040295373648 0.10893680155 0.49000906944
-0.033018257469 0.11110247672 0.49169752002
-0.029299626127 0.10949613154 0.49250409007
-0.19395270944 0.12084811926 0.4595683217
-0.11318891495 0.11505503953 0.49379131198
-0.11209867895 0.10878431797 0.4913033247
-0.10938217491 0.11209650338 0.48801991343
-0.10575506836 0.10465873033 0.48989903927
-0.1026795879 0.10549971461 0.48525977135
-0.093704521656 0.1051492542 0.48764562607
-0.090477250516 0.10350408405 0.48787426949
-0.064772158861 0.10254455358 0.50265228748
-0.060417041183 0.10567710549 0.50570136309
-0.047787092626 0.10932580382 0.50491315126
-0.054030220956 0.11114408821 0.50338828564
-0.053486354649 0.11178583652 0.49916550517
-0.055027246475 0.1132273376 0.49798905849
-0.050772700459 0.11355274916 0.49534127116
-0.050764128566 0.11388224363 0.48890450597
-0.049387607723 0.11081472039 0.49165281653
-0.048499636352 0.10982146114 0.48915588856
-0.045705206692 0.11185006797 0.48986312747
-0.035974334925 0.11130968481 0.49221342802
-0.20155799389 0.11578312516 0.4595375061
-0.1924944669 0.12471387535 0.45991876721
-0.19256259501 0.12397641689 0.45967772603
-0.19421559572 0.1228384003 0.45917230844
-0.11144661903 0.11560855806 0.49328163266
-0.11267437786 0.1147813499 0.49358785152
-0.11725230515 0.10632867366 0.49132725596
-0.12216693908 0.10985453427 0.48628738523
-0.10717837512 0.1106878221 0.4846457839
-0.10060601681 0.10925742239 0.48823946714
