0.074378460646 0.04235823825 0.56552118063
0.074335277081 0.043044306338 0.56110322475
0.075388476253 0.043346710503 0.55914211273
0.080972082913 0.041935589164 0.5647046566
0.076764054596 0.04297227785 0.55485749245
0.078818790615 0.043548125774 0.55137234926
0.07973138988 0.044750545174 0.5486087203
0.0790168643 0.043827839196 0.54731398821
0.081138476729 0.043273191899 0.54947376251
0.080867394805 0.043360579759 0.54752016068
0.081462316215 0.04485404864 0.54433739185
0.085712596774 0.043904401362 0.54876351357
0.082611292601 0.044575385749 0.54240572453
0.082983613014 0.045917015523 0.53987717628
0.085308603942 0.045016281307 0.53958052397
0.085585467517 0.046215876937 0.53638070822
0.084154710174 0.046983808279 0.53382349014
0.089894607663 0.046887855977 0.53192764521
0.091272853315 0.047520119697 0.53213810921
0.087887741625 0.048033144325 0.52763241529
0.089352943003 0.047031719238 0.52743303776
0.092112436891 0.048680059612 0.52584952116
0.091774247587 0.048113420606 0.52414882183
0.094762250781 0.050691507757 0.52002954483
0.09339338541 0.049723241478 0.51991373301
0.095198191702 0.05071772635 0.51783788204
0.095847934484 0.050089202821 0.51676595211
0.096132233739 0.051833480597 0.51261740923
0.098263770342 0.053799413145 0.51020765305
0.048600770533 0.078150831163 0.60691004992
0.048628311604 0.077150151134 0.60728484392
0.049167621881 0.073823921382 0.60714936256
0.049882490188 0.071814514697 0.60741782188
0.05219803378 0.06167517975 0.60744547844
0.05232315883 0.059199631214 0.60742789507
0.052843287587 0.056724067777 0.60722488165
0.054459545761 0.053641878068 0.60733222961
0.05776431784 0.046244941652 0.60395789146
0.059833444655 0.047151550651 0.60376369953
0.067759595811 0.048565745354 0.60398477316
0.063013836741 0.049307651818 0.60338586569
0.063650280237 0.048417862505 0.59945768118
0.068313635886 0.051308374852 0.60221803188
0.065267376602 0.047684404999 0.5942517519
0.070324070752 0.052576709539 0.59720242023
0.067204460502 0.050287261605 0.59369695187
0.061238273978 0.048239473253 0.58607286215
0.066646955907 0.045938331634 0.58479648829
0.061297740787 0.056943994015 0.59216952324
0.07030569762 0.043630402535 0.57173669338
0.070493489504 0.04392465204 0.57598000765
0.068821787834 0.044680882245 0.57203727961
0.071924284101 0.043156523257 0.56830149889
0.065391033888 0.04759657383 0.57998931408
0.073335729539 0.043465543538 0.56558710337
0.074924357235 0.043697770685 0.56218981743
0.075343511999 0.042727395892 0.56180781126
0.076290816069 0.043152585626 0.55775099993
0.077496238053 0.044055301696 0.55677479506
0.078736357391 0.043050672859 0.55564516783
0.079515382648 0.04387671873 0.55345952511
0.080117046833 0.043306283653 0.5541639328
0.080148056149 0.043617743999 0.54986745119
0.082408577204 0.044709697366 0.54602855444
0.08122702688 0.045747373253 0.54644483328
0.083958819509 0.044143553823 0.54413300753
0.085383318365 0.045642323792 0.54147905111
0.087572537363 0.045568354428 0.5381461978
0.078208185732 0.048728670925 0.54088687897
0.088504888117 0.046376671642 0.53427898884
0.091500036418 0.048944458365 0.53024721146
0.087382137775 0.046417985111 0.53074383736
0.095994077623 0.049493610859 0.53280454874
0.092308923602 0.048356197774 0.52799773216
0.090950861573 0.049174178392 0.52349883318
0.09468434751 0.049393933266 0.52506953478
0.09368288517 0.050920095295 0.51947665215
0.095933765173 0.050274692476 0.51864755154
0.097210675478 0.053270772099 0.51477557421
0.097968094051 0.05273662135 0.51409673691
0.098900198936 0.054728366435 0.51101541519
0.099480867386 0.054774668068 0.50924777985
0.049268595874 0.08009506017 0.6073191762
0.049907892942 0.076854616404 0.60747432709
0.050905045122 0.073967009783 0.60748910904
0.05116148293 0.069370694458 0.60750681162
0.051399059594 0.066706076264 0.60652893782
0.052008520812 0.062884092331 0.60708731413
0.053338419646 0.062089208513 0.60728490353
0.053530007601 0.057700894773 0.60729235411
0.054811645299 0.055285587907 0.60737270117
0.055313710123 0.052317619324 0.60715872049
0.056462164968 0.05116770044 0.60743582249
0.058265417814 0.046970300376 0.60644471645
0.057316184044 0.047043245286 0.60602593422
0.05662105605 0.046932548285 0.60527342558
0.061116110533 0.045793239027 0.59915220737
0.063246615231 0.047449119389 0.60279500484
0.061283633113 0.045612800866 0.59564894438
0.064752407372 0.052062939852 0.60329240561
0.067053370178 0.046357359737 0.59990715981
0.070823676884 0.051261782646 0.6012852788
0.071482367814 0.048207663 0.59710615873
0.070116594434 0.056749355048 0.6005461812
0.063062720001 0.048513423651 0.59254711866
0.069504693151 0.049586061388 0.59058266878
0.071091145277 0.060551222414 0.59986358881
0.069980531931 0.048130504787 0.58891558647
0.065403878689 0.054015599191 0.59119778872
0.064105190337 0.047281701118 0.58710885048
0.068429537117 0.060392919928 0.59620898962
0.071866735816 0.042901389301 0.57374578714
0.072597429156 0.04241027683 0.57092386484
0.072803288698 0.043130788952 0.57018405199
0.072280786932 0.043980032206 0.56816983223
0.07447835058 0.04338292405 0.56635099649
0.07631636411 0.043249610811 0.56212639809
0.077921867371 0.042715415359 0.56253576279
0.077919922769 0.043440669775 0.56067752838
0.079922355711 0.042425505817 0.56137764454
0.079032175243 0.042705453932 0.55875408649
0.077773727477 0.044158641249 0.55518853664
0.081168271601 0.043413884938 0.5530205965
0.082141891122 0.042857769877 0.5558128953
0.080583482981 0.044210936874 0.55108654499
0.081184983253 0.045634489506 0.54817420244
0.083049662411 0.043943949044 0.54755675793
0.087431713939 0.045000996441 0.54484957457
0.087777704 0.045057505369 0.54319810867
0.089489266276 0.045887038112 0.54172104597
0.087438121438 0.045453798026 0.53997278214
0.089509807527 0.04757457599 0.53440153599
0.090665444732 0.04713910073 0.53362435102
0.089151099324 0.048532735556 0.5315554738
0.090849272907 0.047799028456 0.52970027924
0.093283519149 0.050430588424 0.52578097582
0.095135867596 0.051180433482 0.5234631896
0.096382245421 0.051423389465 0.52257305384
0.095623865724 0.050230581313 0.52249366045
0.095284052193 0.050613012165 0.52088004351
0.096816778183 0.052514247596 0.51616024971
0.097916610539 0.052849277854 0.51556736231
0.099971726537 0.053407073021 0.51530182362
0.099732987583 0.055386606604 0.51329106092
0.10251591355 0.056662485003 0.51119089127
0.050332110375 0.083816513419 0.60700255632
0.050263784826 0.081718526781 0.60693204403
0.050876300782 0.080568894744 0.60785883665
0.051321078092 0.077698014677 0.60728776455
0.051348287612 0.074688881636 0.6070741415
0.052698876709 0.069879204035 0.6073153019
0.052983544767 0.064269468188 0.60733985901
0.05392280221 0.060424979776 0.60725712776
0.054863464087 0.057958792895 0.60773897171
0.054966859519 0.057986598462 0.60679841042
0.056056756526 0.053700048476 0.60751676559
0.058473885059 0.050382003188 0.60694819689
0.060441102833 0.047172144055 0.60630220175
0.058248214424 0.046232260764 0.60411512852
0.060220699757 0.046263549477 0.60430049896
0.066486917436 0.044277448207 0.60186821222
0.063122339547 0.045987524092 0.59855401516
0.066432878375 0.049153391272 0.59859699011
0.069581538439 0.046383522451 0.59487116337
0.074372909963 0.052266459912 0.59515607357
0.072186976671 0.057992421091 0.60115736723
0.0676991418 0.048103865236 0.58983951807
0.064736060798 0.047867815942 0.58871608973
0.073408909142 0.048698376864 0.58606761694
0.068204112351 0.054832942784 0.5905097127
0.062748417258 0.049082092941 0.5831155777
0.074511088431 0.043413612992 0.56783592701
0.074980460107 0.042588289827 0.56673771143
0.077595219016 0.043101679534 0.5641657114
0.078562170267 0.042940884829 0.56341004372
0.078655451536 0.043845679611 0.55843436718
0.080120779574 0.044306136668 0.55670183897
0.082087211311 0.043661456555 0.55494773388
0.081851445138 0.043968167156 0.55355876684
0.082107678056 0.043650511652 0.55120277405
0.083820775151 0.043685540557 0.5518155694
0.08201085031 0.045164849609 0.5518194437
0.080622985959 0.04564588517 0.54993516207
0.085024468601 0.043968182057 0.54720449448
0.086714170873 0.045603249222 0.54240471125
0.087703354657 0.047384690493 0.53870612383
0.089461512864 0.046504829079 0.53902846575
0.090459004045 0.047539364547 0.53478908539
0.093818828464 0.048442739993 0.53587436676
0.093778043985 0.050329975784 0.52945798635
0.092823393643 0.049774125218 0.52768039703
0.09446503222 0.049897246063 0.52738249302
0.095989592373 0.052094876766 0.52342170477
0.09707159549 0.050933565944 0.52381134033
0.099384009838 0.053050152957 0.52055692673
0.10031092167 0.054272264242 0.51783746481
0.099216677248 0.05305287987 0.51749932766
0.098809100688 0.055448975414 0.5127505064
0.1019661352 0.056417115033 0.5134973526
0.052024364471 0.082274414599 0.60788148642
0.052329674363 0.080308072269 0.60764026642
0.052609048784 0.076234087348 0.60766196251
0.05369464308 0.075334839523 0.60739046335
0.053714230657 0.066706046462 0.60773485899
0.055047187954 0.062757693231 0.60723674297
0.055910851806 0.058979619294 0.60740572214
0.056354060769 0.057457748801 0.60751795769
0.056942272931 0.054934050888 0.60746335983
0.05723760277 0.052331794053 0.60701018572
0.057929478586 0.050278566778 0.60707658529
0.060871846974 0.046013593674 0.60448896885
0.065649420023 0.049041766673 0.60383814573
0.069823563099 0.049378283322 0.60171997547
0.070067897439 0.051427878439 0.6036695838
0.065501458943 0.046619925648 0.59943389893
0.073834240437 0.05161126703 0.60297584534
0.074765473604 0.049640096724 0.59628617764
0.067026048899 0.044969789684 0.5860965848
0.068263731897 0.043739486486 0.58058404922
0.071642965078 0.047344710678 0.58752834797
0.068574473262 0.044369406998 0.57831329107
0.067494250834 0.050619270653 0.58760052919
0.075165167451 0.04267854616 0.57004070282
0.075951933861 0.04217716679 0.56962877512
0.07554885745 0.042425181717 0.5681655407
0.075765676796 0.043886229396 0.56670415401
0.078294478357 0.042744074017 0.56534332037
0.079370088875 0.043507758528 0.56119847298
0.07969904691 0.044903989881 0.56084084511
0.081085413694 0.044105749577 0.55972874165
0.080415271223 0.043666172773 0.55841434002
0.081395991147 0.044885199517 0.5559476018
0.080576464534 0.043605044484 0.55621999502
0.083554752171 0.044671081007 0.55289679766
0.083779282868 0.042709764093 0.55696409941
0.084941126406 0.045068621635 0.55086249113
0.087525583804 0.043138105422 0.55651605129
0.086251690984 0.044740848243 0.54871678352
0.087268121541 0.045116622001 0.54622638226
0.084936507046 0.045445185155 0.54717874527
0.086444020271 0.046283572912 0.54297852516
0.090702861547 0.046457838267 0.54215347767
0.090872578323 0.046028103679 0.54345452785
0.094454221427 0.048328064382 0.53996360302
0.092306025326 0.047410171479 0.53610926867
0.093413516879 0.048772718757 0.53479444981
0.095073543489 0.049813676625 0.53212732077
0.095853894949 0.05093107 0.53067260981
0.09572738409 0.051109276712 0.52824091911
0.093570232391 0.051252044737 0.52945154905
0.096907272935 0.0514838323 0.5271602273
0.097176060081 0.052460689098 0.52317762375
0.098370090127 0.053696662188 0.52095019817
0.098415330052 0.055498749018 0.51933956146
0.1006346643 0.056037541479 0.51723831892
0.10192219913 0.056253235787 0.51645308733
0.098820649087 0.057399794459 0.51387238503
0.10388873518 0.059341881424 0.51181048155
0.05210980773 0.08570548892 0.60660487413
0.052493225783 0.084862053394 0.60734301805
0.053272478282 0.082961879671 0.60782521963
0.053609441966 0.081038795412 0.60743910074
0.05385056138 0.078199110925 0.60719746351
0.053674053401 0.076314769685 0.60709768534
0.05768981576 0.05587445572 0.60726243258
0.058488871902 0.05324883759 0.60766297579
0.059213671833 0.048653092235 0.60719281435
0.059956975281 0.047365572304 0.60741734505
0.061934828758 0.045011438429 0.60689592361
0.069935128093 0.046834267676 0.60402053595
0.068917348981 0.048567168415 0.60238152742
0.070292823017 0.045039460063 0.59845000505
0.067028850317 0.043632149696 0.59824305773
0.070982329547 0.045691233128 0.59798550606
0.069793641567 0.042719069868 0.59490859509
0.07343660295 0.047638222575 0.59700679779
0.067912630737 0.044632725418 0.59373015165
0.069491527975 0.045678865165 0.59202069044
0.074169352651 0.044725015759 0.59265941381
0.076728247106 0.049517482519 0.59280133247
0.067742176354 0.045659460127 0.59106576443
0.074066333473 0.053488630801 0.59340578318
0.065304383636 0.046989016235 0.58930820227
0.07087482512 0.043073393404 0.57807934284
0.073103964329 0.0421885252 0.57615208626
0.073638752103 0.042393904179 0.57391870022
0.07265534997 0.054416384548 0.58949249983
0.074868805707 0.043419774622 0.57313328981
0.075567893684 0.043428458273 0.56984168291
0.077335305512 0.042371768504 0.56753015518
0.078833058476 0.043330930173 0.56687039137
0.080783359706 0.04360923171 0.56300711632
0.079987078905 0.042617157102 0.56485760212
0.079980224371 0.042744882405 0.56276524067
0.081462450325 0.042735997587 0.5619418025
0.082129947841 0.044019505382 0.5589157939
0.083517715335 0.04316335544 0.5589993
0.081665091217 0.043568361551 0.55733937025
0.084689930081 0.043851152062 0.55650353432
0.0816116184 0.045788884163 0.55532872677
0.085877373815 0.044449586421 0.55183565617
0.085808098316 0.044805690646 0.54995375872
0.087309412658 0.045407056808 0.54730403423
0.086250275373 0.04647840187 0.54808932543
0.088987179101 0.045552939177 0.54596936703
0.088194854558 0.044345971197 0.54933667183
0.091681420803 0.047919761389 0.54181307554
0.091901056468 0.047817744315 0.53983300924
0.092806167901 0.049129467458 0.53711092472
0.093890279531 0.047752242535 0.53851902485
0.095098003745 0.050248637795 0.53352993727
0.093772411346 0.049852900207 0.53012830019
0.09797141701 0.052828002721 0.53024566174
0.098384007812 0.052125439048 0.52815997601
0.097856685519 0.052300721407 0.52659577131
0.10063529015 0.053631175309 0.52533632517
0.099759399891 0.054943807423 0.52131342888
0.10029601306 0.054747696966 0.52067679167
0.10163167864 0.057051829994 0.51715493202
0.10091894865 0.058117415756 0.5159034133
0.10424165428 0.060486376286 0.51288956404
0.052382413298 0.088474020362 0.6059076786
0.053363285959 0.087075814605 0.60781651735
0.053878985345 0.087164223194 0.60772621632
0.054501954466 0.084366410971 0.60732787848
0.055157534778 0.082699865103 0.60757035017
0.055209014565 0.071285516024 0.60701906681
0.058922417462 0.055953413248 0.6073269248
0.060041699558 0.055078271776 0.60684210062
0.059994615614 0.051878441125 0.60723304749
0.061557110399 0.048181511462 0.60724914074
0.06388322264 0.043841313571 0.60501110554
0.069674760103 0.046647306532 0.60478407145
0.069775417447 0.041990756989 0.60163795948
0.072087936103 0.048745587468 0.60068064928
0.070142671466 0.040809828788 0.5963165164
0.068737447262 0.043100006878 0.59461981058
0.074715554714 0.058279462159 0.6037479043
0.076571501791 0.055434592068 0.60131776333
0.074483081698 0.041309118271 0.58242678642
0.077998451889 0.040605090559 0.58122205734
0.07510163635 0.042011678219 0.57578110695
0.078556373715 0.04196145013 0.57256740332
0.077088199556 0.042122744024 0.57241934538
0.07723647356 0.042336329818 0.57035249472
0.084005117416 0.042169172317 0.57051926851
0.084519349039 0.042384009808 0.56772857904
0.081445857882 0.045003898442 0.5613040328
0.091018266976 0.044709127396 0.56236922741
0.077267505229 0.045889023691 0.56279432774
0.088469296694 0.044094633311 0.55873835087
0.086772479117 0.045266091824 0.55343574286
0.090969197452 0.045969352126 0.55102831125
0.089617133141 0.0456889458 0.55054199696
0.09084495157 0.04599384591 0.54876309633
0.091670148075 0.046807140112 0.54606032372
0.09085316211 0.048275846988 0.5413274765
0.091757893562 0.04731823504 0.54425543547
0.092964947224 0.047807648778 0.54050379992
0.094243980944 0.049085427076 0.53774678707
0.095695033669 0.050121694803 0.53612864017
0.096555545926 0.051181845367 0.53414779902
0.097868181765 0.051097221673 0.53486096859
0.096580982208 0.052946973592 0.52923494577
0.10059710592 0.054239049554 0.52688610554
0.099553078413 0.055554464459 0.52319824696
0.10137816519 0.056783724576 0.5204153657
0.10329675674 0.059207774699 0.51842170954
0.10222094506 0.057791035622 0.51839613914
0.1042663008 0.057765349746 0.51768636703
0.10563930869 0.06312622875 0.51140630245
0.054725706577 0.088004931808 0.60689502954
0.053608257324 0.087635487318 0.60683119297
0.055353075266 0.086833022535 0.60854780674
0.05622144416 0.080459348857 0.60675662756
0.056808684021 0.072240620852 0.60719203949
0.055896572769 0.069871470332 0.60714107752
0.060357064009 0.056909106672 0.6073499918
0.061603222042 0.052795149386 0.60714006424
0.060855634511 0.050190210342 0.60698974133
0.061528146267 0.048613615334 0.60718035698
0.06276717037 0.047329749912 0.60689127445
0.064135998487 0.044805828482 0.60661441088
0.064515769482 0.044080402702 0.60698825121
0.066355548799 0.044503100216 0.60610198975
0.067052654922 0.041765619069 0.60598868132
0.068522132933 0.043625965714 0.60341966152
0.06630962342 0.042023561895 0.60082811117
0.065564975142 0.042289007455 0.59915941954
0.067991793156 0.042019400746 0.60062050819
0.068187274039 0.041512724012 0.59631210566
0.073841094971 0.048332158476 0.60023075342
0.071077227592 0.041578944772 0.59382367134
0.069978795946 0.045320864767 0.59522867203
0.070375196636 0.041171502322 0.58851659298
0.073492996395 0.045914564282 0.59177201986
0.071797162294 0.043959833682 0.59283167124
0.073507927358 0.041140671819 0.58721858263
0.076074831188 0.04458579421 0.58956336975
0.07467623055 0.046408612281 0.58829319477
0.072671063244 0.043542467058 0.58469861746
0.074916727841 0.050119191408 0.58948451281
0.075726076961 0.041817076504 0.57686257362
0.070555195212 0.046497061849 0.58453208208
0.076929338276 0.049709796906 0.58333986998
0.080058299005 0.042154148221 0.57116371393
0.079199358821 0.042248018086 0.56936621666
0.081080526114 0.042480163276 0.56806755066
0.081572405994 0.042590551078 0.566583395
0.080370761454 0.043473016471 0.56617337465
0.083683237433 0.043361473829 0.56444245577
0.084809973836 0.042770773172 0.56439459324
0.085740037262 0.044064272195 0.55951154232
0.084393113852 0.045629952103 0.55688798428
0.085926569998 0.043630670756 0.55695444345
0.086220920086 0.042999509722 0.55969899893
0.083432845771 0.04539456591 0.55532151461
0.084348343313 0.047489747405 0.55297976732
0.091376632452 0.047536771744 0.54721432924
0.09251280874 0.048576097935 0.54384601116
0.093967735767 0.047722652555 0.54514408112
0.094387941062 0.049976624548 0.54158568382
0.09028827399 0.047061461955 0.54531276226
0.095966272056 0.04885379225 0.54141151905
0.095167212188 0.050501640886 0.53883683681
0.096972420812 0.050167329609 0.53713142872
0.091870725155 0.050962019712 0.53696507215
0.097046375275 0.051292140037 0.53271645308
0.099855586886 0.054395511746 0.52985751629
0.099011324346 0.053135074675 0.52855068445
0.10023791343 0.055560890585 0.52441436052
0.10059963912 0.056289132684 0.52399122715
0.10285167396 0.057118229568 0.52230149508
0.10368710756 0.057586390525 0.52132952213
0.10580732673 0.062507592142 0.51556044817
0.10335371643 0.059358067811 0.5154132843
0.10605369508 0.064791202545 0.51149302721
0.05453094095 0.08993113786 0.60684472322
0.055996954441 0.089574940503 0.608284235
0.055945619941 0.087596297264 0.60797542334
0.056502357125 0.084378652275 0.6073191762
0.058487802744 0.070709079504 0.60752499104
0.058851856738 0.068853609264 0.60744351149
0.060047548264 0.05795898661 0.6073102355
0.062490731478 0.050291754305 0.60688865185
0.064557231963 0.046618081629 0.60718226433
0.066695868969 0.042196515948 0.60444736481
0.068173676729 0.043183315545 0.60126638412
0.070389762521 0.040819197893 0.59315663576
0.076484359801 0.051046911627 0.60417199135
0.076491236687 0.045168187469 0.59431475401
0.078009851277 0.046818546951 0.59191066027
0.072132654488 0.057531584054 0.60320585966
0.076845996082 0.047259759158 0.59113669395
0.073614567518 0.043288677931 0.5889570117
0.074252784252 0.044240277261 0.59096240997
0.077123641968 0.041263472289 0.5826497674
0.071515336633 0.044690273702 0.5887671113
0.077371619642 0.058143615723 0.59495633841
0.071507751942 0.043685853481 0.58761465549
0.0761661008 0.043435484171 0.575116992
0.078884735703 0.042927518487 0.57252299786
0.088202685118 0.042023725808 0.58184987307
0.082278117537 0.041989855468 0.569891572
0.087606050074 0.044203519821 0.56929159164
0.08337521553 0.043262016028 0.56678926945
0.082014538348 0.044831842184 0.56384319067
0.081696718931 0.043346282095 0.56397354603
0.083016373217 0.046336721629 0.56060922146
0.088326714933 0.043884966522 0.5618904233
0.088527195156 0.045881275088 0.55440217257
0.097330614924 0.047296334058 0.56300956011
0.092475421727 0.046954385936 0.55208724737
0.09048525244 0.046202089638 0.55002534389
0.093052394688 0.047057546675 0.5483622551
0.093194134533 0.048972588032 0.5437566638
0.092177987099 0.048535138369 0.54551631212
0.095661662519 0.049800142646 0.54248738289
0.098929978907 0.051525585353 0.53932768106
0.098112016916 0.051229767501 0.53678530455
0.092973694205 0.050919745117 0.54103726149
0.099131800234 0.053120441735 0.53445339203
0.098494283855 0.05352088064 0.53194582462
0.099903851748 0.055468436331 0.52809554338
0.10042823106 0.054433297366 0.52817469835
0.10224939138 0.055282425135 0.52741259336
0.10410374403 0.059759560972 0.52172464132
0.10548980534 0.061749443412 0.51833772659
0.10699743032 0.06651172787 0.51521629095
0.10708107799 0.068848364055 0.51198911667
0.055989984423 0.091942258179 0.60717153549
0.056627370417 0.091184131801 0.60756182671
0.057842567563 0.087941259146 0.60820567608
0.057262741029 0.085370354354 0.60756534338
0.058323681355 0.082194842398 0.60755604506
0.058720886707 0.079268008471 0.60737663507
0.057779788971 0.076670490205 0.60703074932
0.06336133182 0.053017489612 0.60738223791
0.063756473362 0.050379857421 0.60678303242
0.064432762563 0.04822524637 0.60704851151
0.066164061427 0.04627559334 0.60700327158
0.06721175462 0.043356783688 0.60644841194
0.068694524467 0.04210839048 0.60657060146
0.068100713193 0.041348300874 0.60474681854
0.069985345006 0.040080368519 0.60040545464
0.069801039994 0.045482262969 0.60161393881
0.072310432792 0.041757021099 0.59957665205
0.074807338417 0.043051578104 0.59381377697
0.074072510004 0.041244287044 0.59445852041
0.072916716337 0.041667032987 0.59189420938
0.078577183187 0.051519773901 0.59529477358
0.074835382402 0.040897790343 0.58882761002
0.073867730796 0.042297128588 0.58787614107
0.076224520802 0.044616725296 0.58500909805
0.076419346035 0.041669331491 0.58177107573
0.076647594571 0.041631773114 0.57807558775
0.072508260608 0.04688963294 0.58538019657
0.078759342432 0.042542789131 0.57411700487
0.082874819636 0.042520564049 0.5705344677
0.084893032908 0.04352562502 0.56753331423
0.086561642587 0.044676516205 0.56390976906
0.084410049021 0.044091269374 0.56405454874
0.090177290142 0.044238187373 0.56621319056
0.089539140463 0.044089406729 0.56449609995
0.086701400578 0.044158503413 0.56104570627
0.086705558002 0.045746006072 0.5593239069
0.092294476926 0.046053551137 0.55857217312
0.091142058372 0.045917160809 0.55530935526
0.092085666955 0.046222615987 0.55415558815
0.092185996473 0.047768488526 0.54949820042
0.092046715319 0.048768755049 0.54883635044
0.096492394805 0.049126137048 0.5475474596
0.096808291972 0.049405727535 0.54612761736
0.095866799355 0.049730367959 0.5434139967
0.09708686918 0.051466744393 0.53915065527
0.09695122391 0.049368515611 0.54279690981
0.09759619832 0.052095353603 0.53645408154
0.10016942769 0.052306137979 0.53891903162
0.10113736242 0.055279616266 0.53350478411
0.10335887223 0.056666724384 0.53217273951
0.10016027093 0.055187724531 0.53013169765
0.10248711705 0.056764092296 0.52681332827
0.10344368219 0.057741563767 0.52432233095
0.10621505231 0.063996583223 0.52041244507
0.10589840263 0.062635332346 0.5175562501
0.10712535679 0.071092449129 0.51808840036
0.057772632688 0.092322558165 0.60790401697
0.058201104403 0.089687213302 0.6082585454
0.059279896319 0.085301883519 0.60769855976
0.065255768597 0.050390016288 0.60714429617
0.066004082561 0.048219416291 0.60697287321
0.067158780992 0.04687513411 0.60621803999
0.072059310973 0.041631557047 0.60101944208
0.074382506311 0.04438746348 0.60071146488
0.073883898556 0.041240271181 0.59781426191
0.07694966346 0.049773171544 0.59915035963
0.07640106976 0.042980484664 0.59200870991
0.077957607806 0.04248637706 0.59362560511
0.075247593224 0.04222696647 0.59135651588
0.077658191323 0.046912502497 0.58941745758
0.078975595534 0.043704107404 0.58708375692
0.081131771207 0.042195480317 0.58811789751
0.079302214086 0.052023455501 0.5881677866
0.083922028542 0.041868679225 0.57715266943
0.083218313754 0.042672291398 0.57264477015
0.078756511211 0.0433591865 0.57514548302
0.081399016082 0.042656999081 0.57183271646
0.086359217763 0.044027119875 0.56880182028
0.087170735002 0.045144084841 0.5636343956
0.086855143309 0.044256608933 0.56347608566
0.085978448391 0.045081797987 0.56346267462
0.088729716837 0.045701313764 0.56056857109
0.089473247528 0.04520047456 0.55854058266
0.091412231326 0.045572403818 0.55707865953
0.091067828238 0.047542843968 0.55616408587
0.092979229987 0.048103377223 0.55165487528
0.093996196985 0.04780112952 0.55154728889
0.094708532095 0.048826482147 0.54950726032
0.093250505626 0.047986838967 0.54989427328
0.095404662192 0.048682823777 0.54663068056
0.095646388829 0.050550300628 0.5494762063
0.09800299257 0.049771454185 0.54672324657
0.10049357265 0.05297036469 0.54252940416
0.097001537681 0.05322971195 0.53963673115
0.10087613761 0.054455254227 0.53713881969
0.09826695919 0.054701153189 0.53567290306
0.10061247647 0.055265720934 0.53243124485
0.10272303224 0.056909821928 0.53028398752
0.10426104069 0.058867014945 0.52612674236
0.10548184812 0.060858119279 0.52414613962
0.10659830272 0.062491957098 0.52241432667
0.10783664882 0.07000746578 0.52005136013
0.10751806945 0.073156312108 0.51453912258
0.059946261346 0.091490857303 0.60878026485
0.060092594475 0.089869402349 0.60849756002
0.060259532183 0.08771751821 0.60801130533
0.06038318947 0.08591235429 0.60797137022
0.060280028731 0.081720709801 0.6079916954
0.061757396907 0.079025477171 0.60803699493
0.063402786851 0.076923303306 0.60827070475
0.061704497784 0.074955038726 0.60746204853
0.064353771508 0.071218781173 0.60778570175
0.068094663322 0.047981534153 0.60705465078
0.068615138531 0.046478200704 0.60718631744
0.068893820047 0.045040696859 0.60677224398
0.070116281509 0.043106105179 0.60653817654
0.07313182205 0.043280646205 0.60197973251
0.072593681514 0.039179772139 0.5985750556
0.077208213508 0.041565701365 0.59622961283
0.075673907995 0.039607793093 0.59615534544
0.075744837523 0.040108174086 0.59077316523
0.082099765539 0.053914282471 0.59777778387
0.082287572324 0.043922241777 0.58942759037
0.080085039139 0.054986599833 0.59759378433
0.079956762493 0.041257478297 0.58329123259
0.085897147655 0.040828473866 0.58772730827
0.078726753592 0.04236228019 0.57776975632
0.080963388085 0.043265640736 0.57492083311
0.086155250669 0.042937710881 0.57218527794
0.081977196038 0.044034034014 0.57338958979
0.086152881384 0.042921811342 0.57002073526
0.089597575366 0.044780030847 0.5672352314
0.091387063265 0.044773492962 0.56610012054
0.091141805053 0.045266833156 0.5632879138
0.091272056103 0.046176161617 0.55926084518
0.089658014476 0.046882249415 0.55957216024
0.091273091733 0.046565558761 0.55843168497
0.09421724081 0.047187205404 0.55593633652
0.094052992761 0.047485269606 0.55413675308
0.098937660456 0.049383807927 0.55676156282
0.097957514226 0.049677487463 0.55272823572
0.097289770842 0.050845723599 0.54664945602
0.093910656869 0.050938628614 0.54755234718
0.097555033863 0.052124734968 0.54278922081
0.096361391246 0.052002403885 0.54279994965
0.10094905645 0.053534712642 0.54095065594
0.099882014096 0.055105332285 0.53623312712
0.10161748528 0.05559270829 0.53684031963
0.10287214816 0.057671476156 0.5327077508
0.10386991501 0.057597510517 0.5316426754
0.10392563045 0.058076482266 0.52900362015
0.10475366563 0.060161691159 0.52647483349
0.10537713021 0.062264796346 0.52360850573
0.10758978128 0.066632255912 0.52106881142
0.10852212459 0.078653208911 0.51049268246
0.060568336397 0.094412244856 0.60864108801
0.060493100435 0.092850670218 0.60882180929
0.061339989305 0.091312468052 0.60870039463
0.061638403684 0.08945775032 0.60873413086
0.06312905252 0.085842370987 0.60863596201
0.061930235475 0.082780331373 0.60808241367
0.064254835248 0.078665487468 0.60795742273
0.065004386008 0.073752641678 0.60796636343
0.067960947752 0.049296174198 0.60694539547
0.069590844214 0.048150405288 0.6068469882
0.070788614452 0.044757246971 0.60671257973
0.072082161903 0.042738381773 0.60595649481
0.073814161122 0.04027704522 0.60109418631
0.075172320008 0.042329732329 0.60011762381
0.075977668166 0.046566732228 0.60193955898
0.076934888959 0.040198467672 0.59801375866
0.076094418764 0.048596229404 0.60276269913
0.078224986792 0.044483065605 0.59513765574
0.075812637806 0.039504177868 0.59410184622
0.080008268356 0.051138341427 0.59607481956
0.079015046358 0.041504815221 0.59318578243
0.081844560802 0.049591593444 0.5916749835
0.081184536219 0.047001391649 0.59007650614
0.082587584853 0.054490741342 0.59195619822
0.088908582926 0.046106815338 0.58592015505
0.086193531752 0.041984494776 0.57672584057
0.085545234382 0.042831063271 0.57439994812
0.088568903506 0.043083507568 0.57135736942
0.091349683702 0.044556681067 0.57030457258
0.089847877622 0.045163203031 0.56521511078
0.091800652444 0.045927762985 0.56318503618
0.085998639464 0.045182492584 0.56660717726
0.092386543751 0.046510435641 0.55952012539
0.093358904123 0.048212885857 0.55638802052
0.092133738101 0.048160802573 0.5550404191
0.096985451877 0.049676693976 0.55306506157
0.096203528345 0.050195731223 0.55092954636
0.095771916211 0.049661792815 0.55167710781
0.097848542035 0.049991540611 0.54996913671
0.099554181099 0.052350636572 0.5480222106
0.097620598972 0.052550192922 0.54425549507
0.10050521791 0.054765596986 0.54234915972
0.10213135183 0.054667167366 0.54156160355
0.099033512175 0.05369669944 0.54098397493
0.1030036211 0.055786479264 0.53705149889
0.10500621796 0.058127280325 0.53712797165
0.10409123451 0.058726988733 0.53173786402
0.10555628687 0.059742514044 0.53043186665
0.10473503172 0.059231970459 0.52874225378
0.10642963648 0.06119826436 0.52687799931
0.1077626124 0.066104911268 0.52408128977
0.062454469502 0.097748540342 0.60944741964
0.062206443399 0.092867352068 0.60849589109
0.062195077538 0.088526554406 0.60873514414
0.06353456527 0.087937407196 0.6079736948
0.063168667257 0.084309674799 0.60867089033
0.063624873757 0.081305012107 0.60870999098
0.066412873566 0.079122640193 0.6084253788
0.065528564155 0.077431626618 0.60872161388
0.071037426591 0.04700929299 0.6064350009
0.072326682508 0.044709149748 0.6058357954
0.074311941862 0.040849793702 0.60651361942
0.076158516109 0.042634848505 0.60144156218
0.076695673168 0.042359221727 0.60081917048
0.074436381459 0.038922801614 0.59966033697
0.076421432197 0.044167172164 0.59946638346
0.085130862892 0.040851213038 0.60027050972
0.078785449266 0.042310167104 0.5968517065
0.075500704348 0.052712764591 0.60298609734
0.079387463629 0.046199120581 0.59427309036
0.081724978983 0.043958503753 0.59351235628
0.082034751773 0.04074556008 0.58977782726
0.084297932684 0.045486442745 0.58714991808
0.077166646719 0.042190685868 0.58403992653
0.083851896226 0.041772946715 0.58002454042
0.081151664257 0.051182378083 0.58714818954
0.085442945361 0.044035367668 0.57297390699
0.083565279841 0.050119888037 0.58663958311
0.083268612623 0.042525209486 0.57543718815
0.090448923409 0.045231632888 0.56753343344
0.091574378312 0.046619728208 0.56487411261
0.092366047204 0.04678080976 0.56414598227
0.091130711138 0.046937137842 0.56343144178
0.093916073442 0.046459488571 0.56254720688
0.094768427312 0.048415217549 0.55899256468
0.088126324117 0.046329446137 0.56293696165
0.09743244946 0.048380259424 0.56073874235
0.097642168403 0.049252547324 0.55656176805
0.095938019454 0.04817635566 0.555595994
0.099766120315 0.050974909216 0.55296897888
0.097472205758 0.051275435835 0.55029964447
0.10240536928 0.053902544081 0.5452761054
0.10021626204 0.054152864963 0.54485630989
0.10211204737 0.055679354817 0.53969621658
0.10112009197 0.055996838957 0.54060423374
0.097050219774 0.055422484875 0.54225921631
0.1045781374 0.058779843152 0.5344017148
0.10511337221 0.05968439579 0.53238105774
0.10506024957 0.059982266277 0.53085118532
0.10585940629 0.061945714056 0.52747577429
0.10708467662 0.064439564943 0.52615576982
0.10826997459 0.08102864027 0.51469314098
0.063913211226 0.090764187276 0.60854446888
0.065369956195 0.087740406394 0.60900390148
0.064887322485 0.086327791214 0.60832774639
0.065059021115 0.083144180477 0.60868060589
0.066566176713 0.08103299886 0.60893052816
0.067483715713 0.077229171991 0.6081610918
0.070811837912 0.049528412521 0.6072537899
0.073580928147 0.046518713236 0.60748666525
0.073379836977 0.044524494559 0.60657918453
0.073913142085 0.042337909341 0.60564297438
0.075552493334 0.040165640414 0.60064733028
0.075805671513 0.044928502291 0.60208195448
0.077723659575 0.040077995509 0.59961056709
0.078764237463 0.041023433208 0.59576034546
0.08571536094 0.04547515884 0.59886306524
0.081831037998 0.050157990307 0.59749853611
0.079401291907 0.043578006327 0.59387123585
0.082995444536 0.047679308802 0.59373980761
0.080956213176 0.040684122592 0.5877918005
0.0785818398 0.058162607253 0.60262125731
0.084057636559 0.04211756587 0.58816576004
0.08334017545 0.043274372816 0.58377814293
0.084729999304 0.041782896966 0.58142578602
0.087637454271 0.042455174029 0.57826507092
0.085877761245 0.043314445764 0.57586324215
0.08316372335 0.042817022651 0.57756185532
0.089071474969 0.04399105534 0.57217991352
0.093456014991 0.046311669052 0.56871289015
0.090391397476 0.04661879316 0.56682920456
0.096513733268 0.047463394701 0.56934762001
0.093565963209 0.048187870532 0.56031572819
0.092826232314 0.04858853668 0.56201761961
0.085473418236 0.046681310982 0.56908512115
0.09615328908 0.048708226532 0.55737519264
0.089087218046 0.049328170717 0.55948090553
0.098039954901 0.050432942808 0.55422282219
0.097630821168 0.052596170455 0.55118244886
0.09971241653 0.052981045097 0.54885810614
0.10015723109 0.053351316601 0.54696005583
0.097782246768 0.053493760526 0.54846173525
0.10515842587 0.057666033506 0.54288637638
0.096327669919 0.054378271103 0.54669946432
0.10520333797 0.058272194117 0.53924250603
0.10467670113 0.059646066278 0.53593665361
0.10488824546 0.059964571148 0.53332412243
0.10537596792 0.06115495041 0.53112435341
0.10694884509 0.068551428616 0.52538394928
0.066012889147 0.090898916125 0.60933196545
0.068230420351 0.087960392237 0.60970693827
0.067250877619 0.08505256474 0.60958570242
0.068003475666 0.082934819162 0.60958349705
0.069004885852 0.080235034227 0.60937583447
0.069143980742 0.077122598886 0.60861998796
0.069458514452 0.074696011841 0.60848993063
0.073194943368 0.047177001834 0.60714846849
0.075277835131 0.045202083886 0.60679984093
0.076098136604 0.042971044779 0.60667616129
0.0766723454 0.039773147553 0.60614532232
0.080337159336 0.040642630309 0.59826403856
0.081300772727 0.039477825165 0.59807914495
0.081180967391 0.042576450855 0.59724146128
0.08255995065 0.039422936738 0.59535622597
0.081308960915 0.041311439127 0.59269523621
0.084698453546 0.043662019074 0.58834344149
0.085449039936 0.054033067077 0.59373217821
0.084909401834 0.054863080382 0.59173059464
0.087911441922 0.042736660689 0.57947832346
0.084225594997 0.054981410503 0.5896936655
0.090000897646 0.044366870075 0.5734911561
0.090389885008 0.044880401343 0.57126712799
0.089545540512 0.046388175339 0.57019710541
0.090033963323 0.047018110752 0.56754040718
0.095864869654 0.04731958732 0.56587457657
0.096555605531 0.049631722271 0.55975431204
0.095855049789 0.048591967672 0.56056779623
0.099708177149 0.050956245512 0.55781769753
0.098347194493 0.050674971193 0.55787199736
0.093658171594 0.049946624786 0.55849868059
0.095225088298 0.050657726824 0.55615127087
0.10124268383 0.053533516824 0.55190509558
0.095704935491 0.052668776363 0.55306571722
0.10227651894 0.05324100703 0.55024504662
0.10193813592 0.054578956217 0.54743665457
0.10252352804 0.056986778975 0.54364919662
0.10588982701 0.058296509087 0.54167979956
0.10563906282 0.059002615511 0.5399338007
0.10525579005 0.059667278081 0.53488785028
0.10657787323 0.062909118831 0.53212064505
0.10704851896 0.062410742044 0.53031784296
0.10466443747 0.091620497406 0.51150453091
0.067038722336 0.097258426249 0.60942465067
0.066747039557 0.095557078719 0.60956162214
0.066740691662 0.093216508627 0.60944575071
0.067612469196 0.089934937656 0.60935771465
0.075759507716 0.046836152673 0.60629737377
0.078416891396 0.042802348733 0.60593819618
0.077428601682 0.041264813393 0.60575306416
0.084766402841 0.045792646706 0.5958699584
0.085628427565 0.048110809177 0.59035223722
0.085283406079 0.041444096714 0.58546251059
0.091796286404 0.044257555157 0.58790242672
0.086478918791 0.042734887451 0.5796880722
0.084033340216 0.041392367333 0.58485579491
0.089804925025 0.043321821839 0.58023124933
0.094461396337 0.048814676702 0.58088231087
0.087438136339 0.045454684645 0.57409787178
0.093168787658 0.046407196671 0.56993895769
0.08214315027 0.044721007347 0.57902938128
0.093944698572 0.048259176314 0.56683379412
0.09778816998 0.04904942587 0.56465381384
0.092994831502 0.048999909312 0.56456363201
0.09902202338 0.051894441247 0.55608159304
0.1015804708 0.053573831916 0.55431723595
0.10056280345 0.053073491901 0.55272382498
0.09284504503 0.052775945514 0.55699068308
0.10411565751 0.05628419295 0.54652136564
0.10201779753 0.056377131492 0.54629456997
0.10347158462 0.058658100665 0.54219049215
0.1060288325 0.059725105762 0.54062283039
0.10570185632 0.060064040124 0.53842008114
0.1070151031 0.061159152538 0.53683817387
0.10701324791 0.061826173216 0.53484004736
0.10820122808 0.06754399091 0.53252983093
0.10774429888 0.064338736236 0.52998495102
0.068373844028 0.099249906838 0.60963451862
0.075332820415 0.048964977264 0.60766094923
0.078061230481 0.045306857675 0.60659855604
0.078635193408 0.043560780585 0.60667812824
0.079489909112 0.040959894657 0.60662090778
0.080140478909 0.042529404163 0.60174465179
0.080833479762 0.038834359497 0.60109734535
0.081911630929 0.045360781252 0.60029888153
0.083063617349 0.039493169636 0.59707731009
0.08235552907 0.042360261083 0.5967438817
0.085332065821 0.04968643561 0.5983749032
0.084939233959 0.050498601049 0.5989587903
0.086868740618 0.0462137945 0.59198009968
0.093115478754 0.046219635755 0.59352165461
0.084221698344 0.054935667664 0.5978859067
0.090100966394 0.051572345197 0.59429579973
0.089745931327 0.053205624223 0.58993273973
0.086290068924 0.051445886493 0.58759391308
0.089950509369 0.04698016122 0.58111333847
0.089665666223 0.045798867941 0.58088684082
0.094404801726 0.046194661409 0.57314687967
0.095401123166 0.046951584518 0.57147294283
0.095867611468 0.046698603779 0.57234805822
0.09340454638 0.047077979892 0.57026487589
0.09567733109 0.048700101674 0.56683462858
0.098402574658 0.049159798771 0.56569075584
0.097069248557 0.050180125982 0.56023663282
0.098477318883 0.051873087883 0.56209468842
0.097127273679 0.051200516522 0.5603915453
0.1003806591 0.052411191165 0.55738031864
0.092163026333 0.051481299102 0.56139177084
0.10297648609 0.055278412998 0.5520709157
0.10335881263 0.056331917644 0.54939043522
0.10423126072 0.057875387371 0.54629856348
0.10580475628 0.058857042342 0.54425048828
0.10591594875 0.060003321618 0.54236847162
0.10725147277 0.06217892468 0.53872162104
0.10804390162 0.064860589802 0.5365729332
0.10823950171 0.064514838159 0.53408545256
0.077611580491 0.049199339002 0.60638022423
0.07947781682 0.044008951634 0.60631579161
0.080549396574 0.042719561607 0.60668361187
0.084988586605 0.040683720261 0.59526699781
0.085235707462 0.046315692365 0.59640657902
0.09697778523 0.044044017792 0.59891611338
0.084906235337 0.055001348257 0.60432201624
0.082794308662 0.055670298636 0.60224366188
0.087282545865 0.045367993414 0.58961570263
0.080628201365 0.058737978339 0.60295701027
0.08661057055 0.042068619281 0.58740377426
0.089838914573 0.044274378568 0.58657127619
0.087893418968 0.048184361309 0.58451747894
0.090625487268 0.044879004359 0.57800394297
0.096947588027 0.048139601946 0.58174008131
0.092518910766 0.045627519488 0.57444369793
0.095026165247 0.047769397497 0.57056343555
0.095557697117 0.048586230725 0.57131582499
0.097007237375 0.050923354924 0.56718814373
0.093398548663 0.048412661999 0.56870955229
0.10138490051 0.05147851631 0.56317383051
0.10050091892 0.052254199982 0.55998408794
0.099147289991 0.053776029497 0.55906671286
0.1001226753 0.054645318538 0.55612647533
0.10365970433 0.056091543287 0.55303376913
0.10457252711 0.057797320187 0.54995244741
0.10594415665 0.058088865131 0.54930716753
0.10562582314 0.059717476368 0.54663252831
0.10625501722 0.059837985784 0.54433178902
0.10687883198 0.060956254601 0.54251378775
0.10830890387 0.062617592514 0.54172438383
0.10687443614 0.065191961825 0.54001879692
0.078956529498 0.047011565417 0.60679906607
0.079957433045 0.04514272511 0.60687381029
0.083862565458 0.041209377348 0.6003062129
0.084018670022 0.04404753074 0.60050278902
0.086818143725 0.045616723597 0.59957015514
0.088303819299 0.048232812434 0.59778875113
0.089212663472 0.049750056118 0.59698134661
0.089279145002 0.044179290533 0.5887581706
0.090737596154 0.044431764632 0.58803808689
0.090923219919 0.046229090542 0.58815050125
0.091255150735 0.05023323372 0.58656227589
0.090377055109 0.047605257481 0.58172351122
0.092580191791 0.045285977423 0.57794344425
0.094786353409 0.049581188709 0.58109778166
0.094970852137 0.045987606049 0.57676291466
0.097252823412 0.048411216587 0.57197093964
0.089686974883 0.046259086579 0.57677191496
0.10064261407 0.052020289004 0.57407015562
0.098730072379 0.051071617752 0.56439238787
0.10036377609 0.051318798214 0.56551223993
0.10081261396 0.052631862462 0.56233638525
0.10051853955 0.05457931757 0.55849426985
0.10352995247 0.055557750165 0.55760473013
0.10297109187 0.056307334453 0.55369639397
0.10493334383 0.05918834731 0.54963928461
0.10600817204 0.060022044927 0.54538488388
0.10764071345 0.063272491097 0.54356819391
0.10819057375 0.064123764634 0.54338049889
0.10852195323 0.065586514771 0.53874909878
0.083413884044 0.04395917803 0.60735332966
0.082759313285 0.043082017452 0.6062926054
0.083968900144 0.043973296881 0.60274535418
0.08666087687 0.049388047308 0.60005319118
0.083969332278 0.053945407271 0.60260623693
0.090277843177 0.047232411802 0.59207618237
0.092079900205 0.042873922735 0.59104305506
0.092748589814 0.047089505941 0.58922052383
0.088929019868 0.050685562193 0.591332376
0.092666700482 0.048445306718 0.58574169874
0.095154382288 0.04566482082 0.58663678169
0.092132009566 0.043972320855 0.58517682552
0.082264184952 0.058622621 0.59607261419
0.092854268849 0.045085694641 0.58035081625
0.091713443398 0.054635774344 0.58373767138
0.09372920543 0.055785298347 0.5801487565
0.096599854529 0.04969580844 0.57371211052
0.10203097016 0.051631052047 0.57110118866
0.09476365149 0.051250889897 0.56868249178
0.10332600027 0.056752949953 0.5573875308
0.10450094938 0.057899218053 0.55605208874
0.10679935664 0.058944959193 0.55515211821
0.10572766513 0.057902649045 0.55233281851
0.10883349925 0.060793727636 0.55199295282
0.10685238242 0.061083693057 0.54776090384
0.10831435025 0.062811076641 0.54730713367
0.10815318674 0.063899978995 0.54548847675
0.10866392404 0.064977183938 0.54101228714
0.082194857299 0.047486197203 0.60716915131
0.08300652355 0.044598761946 0.60655629635
0.085105113685 0.044103581458 0.60699397326
0.088149011135 0.040391232818 0.60101306438
0.092501424253 0.042466353625 0.59699338675
0.089499227703 0.047295816243 0.59855902195
0.089158572257 0.045540388674 0.59463566542
0.091992281377 0.047774605453 0.59394681454
0.090313851833 0.047049317509 0.59468358755
0.08855535835 0.055193100125 0.59960412979
0.087720960379 0.056622061878 0.5995182991
0.093899257481 0.046769138426 0.58655625582
0.095065362751 0.04670849815 0.58296102285
0.09472450614 0.048411540687 0.58362644911
0.091873623431 0.055201273412 0.58774113655
0.098888993263 0.051798406988 0.57380527258
0.087268188596 0.058098185807 0.58858835697
0.09884224087 0.053209234029 0.57496601343
0.099478587508 0.049485627562 0.57296407223
0.099098108709 0.051959928125 0.56838643551
0.10332856327 0.054843947291 0.56358134747
0.10514130443 0.055949784815 0.56286007166
0.10531104356 0.056447476149 0.56076419353
0.10599407554 0.057785559446 0.55828732252
0.10749407113 0.058814644814 0.55790871382
0.10541774333 0.059406552464 0.55319744349
0.10660903156 0.059823341668 0.55118519068
0.1084035486 0.062158025801 0.55140763521
0.109410353 0.067306898534 0.54417997599
0.10895968229 0.068152830005 0.53922271729
0.0794409886 0.078587934375 0.60934096575
0.080085813999 0.076892495155 0.60842382908
0.081270717084 0.073771946132 0.60864114761
0.08391277492 0.047272205353 0.6069843173
0.084491856396 0.045636162162 0.60750222206
0.086087405682 0.052226446569 0.60388600826
0.090659417212 0.046029206365 0.59584438801
0.092313565314 0.046409931034 0.59208005667
0.092944741249 0.048483021557 0.59222370386
0.093632109463 0.052428536117 0.59348505735
0.091529972851 0.053124152124 0.59238940477
0.087798669934 0.056462414563 0.59616678953
0.098134800792 0.047998469323 0.58434158564
0.087921589613 0.055603019893 0.59196901321
0.097642727196 0.053418755531 0.58368426561
0.096590854228 0.048178032041 0.57938230038
0.089197866619 0.056899659336 0.59098619223
0.099753029644 0.050489135087 0.57384371758
0.10286764055 0.055520243943 0.57089006901
0.10469120741 0.055614676327 0.56599724293
0.10447925329 0.05643414706 0.5630723834
0.10225757211 0.055698953569 0.56280052662
0.10933887213 0.060369659215 0.56432545185
0.10585203767 0.059153813869 0.55602586269
0.10895822197 0.061019651592 0.55589920282
0.10746029764 0.060827944428 0.55224519968
0.10815787315 0.062025807798 0.54881954193
0.10820393264 0.063915446401 0.54714888334
0.080520652235 0.078922264278 0.60876530409
0.081548042595 0.076807595789 0.60884338617
0.084960982203 0.047077417374 0.60745257139
0.086816385388 0.044987134635 0.6072165966
0.086870774627 0.043864227831 0.60640627146
0.087643794715 0.04946321249 0.60349690914
0.090670339763 0.044141229242 0.59621691704
0.092611566186 0.046548116952 0.59614539146
0.092617288232 0.044922053814 0.59217911959
0.09131936729 0.051645111293 0.59721451998
0.094793483615 0.047421358526 0.59255605936
0.091494902968 0.055708676577 0.59808844328
0.094592154026 0.052280236036 0.59140080214
0.095727778971 0.04694345966 0.58768427372
0.093559212983 0.049974624068 0.58711194992
0.096869036555 0.051188569516 0.58545011282
0.099835805595 0.050646979362 0.58314466476
0.099848985672 0.053082484752 0.5800845027
0.10001675785 0.04957408458 0.57754182816
0.10207809508 0.052767124027 0.57067495584
0.10153024644 0.05333507061 0.56975519657
0.10260103643 0.055924572051 0.57116562128
0.104103975 0.055042549968 0.56709367037
0.10503574461 0.056808382273 0.56319880486
0.10609833151 0.058567613363 0.55917596817
0.10772566497 0.060566693544 0.55777412653
0.10750986636 0.061122402549 0.55620551109
0.10799585283 0.061389256269 0.55375176668
0.10812823474 0.063780225813 0.55102211237
0.10939348489 0.065018430352 0.548209548
0.081190906465 0.079633027315 0.60886085033
0.082051053643 0.079258270562 0.60909479856
0.083020463586 0.075796723366 0.60910367966
0.08715621382 0.046994391829 0.60786139965
0.088771000504 0.04660763219 0.60731756687
0.088569901884 0.045020323247 0.60638582706
0.090476252139 0.05152297765 0.60132867098
0.093202278018 0.050477825105 0.59884190559
0.08785147965 0.056466896087 0.60236793756
0.095647066832 0.052318062633 0.59472727776
0.09728551656 0.047804165632 0.58978664875
0.090780451894 0.05661214143 0.59759032726
0.086509697139 0.057901501656 0.59954977036
0.100534603 0.051059596241 0.59014832973
0.097292177379 0.056011840701 0.5884488225
0.098839022219 0.04994283244 0.57777869701
