-0.04368462041 0.034641265869 0.50596255064
-0.040417902172 0.034100551158 0.50656461716
-0.040335714817 0.034828890115 0.50344932079
-0.041314538568 0.033815816045 0.49930372834
-0.043859858066 0.032263938338 0.49545422196
-0.04123808071 0.027895262465 0.49733358622
-0.038701247424 0.02545395866 0.4986641705
-0.036791436374 0.022231372073 0.49960115552
-0.036109566689 0.020722681656 0.49887481332
-0.034684944898 0.018461087719 0.49971598387
-0.047292564064 0.069124743342 0.55299961567
-0.044179223478 0.061968974769 0.55460107327
-0.033415019512 0.050609346479 0.56241768599
-0.038050148636 0.048004101962 0.55425918102
-0.035562414676 0.047015655786 0.55350792408
-0.03883350268 0.047321703285 0.55263543129
-0.038280334324 0.045499376953 0.55009788275
-0.03970913589 0.045852445066 0.54856300354
-0.034084752202 0.043041311204 0.55301845074
-0.040585644543 0.045883454382 0.54516750574
-0.039705906063 0.044048596174 0.54492390156
-0.035733573139 0.041623648256 0.54559111595
-0.039823289961 0.043115116656 0.54068297148
-0.035782791674 0.041006978601 0.54363644123
-0.039544250816 0.041917689145 0.53884148598
-0.036669034511 0.040201861411 0.53974527121
-0.038369696587 0.039915025234 0.53655904531
-0.038127847016 0.039751324803 0.53434020281
-0.036356329918 0.039521392435 0.5339500308
-0.039802290499 0.039337847382 0.52868133783
-0.034070536494 0.037322454154 0.53188431263
-0.038614626974 0.038226164877 0.52626472712
-0.039346788079 0.038448095322 0.52324616909
-0.037321478128 0.036833319813 0.52417510748
-0.038669470698 0.036338340491 0.52042919397
-0.040800575167 0.037455767393 0.51718312502
-0.038521658629 0.035594448447 0.51759636402
-0.042208943516 0.036174479872 0.513233006
-0.037143383175 0.034145325422 0.51540315151
-0.04190729931 0.035499662161 0.51004785299
-0.040250971913 0.03471185267 0.51063352823
-0.038040600717 0.033514101058 0.51108008623
-0.042162548751 0.035014979541 0.50592046976
-0.042123824358 0.035222847015 0.50450241566
-0.042677629739 0.036026168615 0.50271517038
-0.042869713157 0.036607794464 0.49967634678
-0.040360696614 0.035723309964 0.50086820126
-0.044384334236 0.037033163011 0.495639503
-0.041377868503 0.034740127623 0.49830749631
-0.03836614266 0.032581090927 0.50021833181
-0.038486562669 0.031171604991 0.49921151996
-0.038284342736 0.029152769595 0.49908509851
-0.038535177708 0.027763307095 0.49853181839
-0.036298025399 0.024740176275 0.49923181534
-0.037228804082 0.023720750585 0.49891656637
-0.03624413535 0.019912758842 0.49712395668
-0.033492125571 0.016702014953 0.49902027845
-0.038823209703 0.048156768084 0.55266416073
-0.035538382828 0.044741805643 0.55199503899
-0.034379359335 0.043827392161 0.55177766085
-0.034508354962 0.043317046016 0.55029284954
-0.034815073013 0.042576946318 0.54954731464
-0.035298731178 0.0430900231 0.54704898596
-0.03850492835 0.043495621532 0.54313182831
-0.038008656353 0.042302757502 0.54070752859
-0.034549433738 0.041049458086 0.54216259718
-0.034226849675 0.040053736418 0.54034841061
-0.034039448947 0.040982905775 0.54053139687
-0.031978275627 0.039343312383 0.54134368896
-0.037475403398 0.040446911007 0.53404569626
-0.035217355937 0.038505554199 0.53468620777
-0.039438970387 0.041112273932 0.52897143364
-0.036071617156 0.038525022566 0.53109788895
-0.038888603449 0.039629239589 0.52595067024
-0.04047029838 0.039927043021 0.52357822657
-0.035472661257 0.037297528237 0.5270062685
-0.040444929153 0.039039861411 0.51950883865
-0.035544224083 0.036611355841 0.52299159765
-0.039152864367 0.038736879826 0.51776736975
-0.037185963243 0.035351652652 0.51957273483
-0.035795290023 0.034475572407 0.51827710867
-0.03786406666 0.035238478333 0.51339805126
-0.041237823665 0.035805229098 0.50848448277
-0.03823306784 0.034397546202 0.50910884142
-0.036270525306 0.035050619394 0.50732570887
-0.038134016097 0.035521391779 0.50111150742
-0.036647040397 0.034844558686 0.50123172998
-0.039194270968 0.034193191677 0.49840268493
-0.036801822484 0.030016189441 0.49868986011
-0.036394272 0.02723544091 0.4991197288
-0.035374499857 0.026447260752 0.49882566929
-0.036712747067 0.023802548647 0.49686259031
-0.03437320888 0.021826954558 0.49908417463
-0.033751111478 0.019418884069 0.49862122536
-0.033895883709 0.017579872161 0.49764844775
-0.030434343964 0.04881984368 0.56733959913
-0.0210357178 0.065151415765 0.58001714945
-0.031906865537 0.048564027995 0.56508624554
-0.029153337702 0.045923214406 0.56358426809
-0.031665332615 0.051685623825 0.56437277794
-0.032273702323 0.045199710876 0.55837243795
-0.027784591541 0.047077067196 0.56475436687
-0.034929290414 0.044955205172 0.55372107029
-0.037213392556 0.045434366912 0.5487600565
-0.037092521787 0.04469936341 0.54621827602
-0.031890437007 0.04231531918 0.54892724752
-0.037168566138 0.043705970049 0.54337990284
-0.034101914614 0.042235311121 0.54485738277
-0.032293438911 0.041334819049 0.54510766268
-0.036165323108 0.041919060051 0.53957349062
-0.038015313447 0.04210395366 0.53523606062
-0.037474066019 0.041667621583 0.53474342823
-0.034582003951 0.040361713618 0.53601115942
-0.038065448403 0.041284378618 0.53125160933
-0.034219019115 0.039547849447 0.53458917141
-0.032436233014 0.039363931865 0.53435528278
-0.0383506082 0.039949566126 0.52822303772
-0.034774173051 0.039333697408 0.53002339602
-0.035725537688 0.039064623415 0.52716618776
-0.030399143696 0.037920162082 0.53156977892
-0.037498161197 0.038700837642 0.52394419909
-0.03732733801 0.037788171321 0.52171111107
-0.037474796176 0.038177717477 0.52019113302
-0.037055000663 0.037192814052 0.51918935776
-0.037988644093 0.037716116756 0.51714122295
-0.036436352879 0.036453202367 0.51741921902
-0.039302423596 0.037144009024 0.5133638978
-0.039451811463 0.037257120013 0.51248121262
-0.039595481008 0.037821784616 0.51087737083
-0.034892112017 0.0341476053 0.51410371065
-0.03632607311 0.035107534379 0.5120486021
-0.034192215651 0.034443642944 0.51208490133
-0.04044720158 0.036528967321 0.50512456894
-0.040557172149 0.037207532674 0.50210183859
-0.04044687748 0.037045981735 0.50082874298
-0.042231868953 0.03839135915 0.49731004238
-0.036581389606 0.033466808498 0.4997613728
-0.036902710795 0.031758192927 0.49832218885
-0.035432972014 0.028139322996 0.49858602881
-0.034227516502 0.026540532708 0.50191766024
-0.033229935914 0.023138547316 0.49892526865
-0.032446593046 0.020735265687 0.49929788709
-0.031960908324 0.018699655309 0.49908310175
-0.031222956255 0.016135878861 0.49954670668
-0.028993884102 0.054582580924 0.57305657864
-0.02909803018 0.055821344256 0.57247376442
-0.029458325356 0.048203360289 0.5681334734
-0.031063264236 0.051203936338 0.56603974104
-0.027254059911 0.048381809145 0.56938654184
-0.032144855708 0.047574304044 0.56145745516
-0.029918977991 0.056091655046 0.56741946936
-0.031113192439 0.044823985547 0.55560451746
-0.035132445395 0.04722481966 0.55264174938
-0.031509712338 0.048602920026 0.55829209089
-0.033645875752 0.044233273715 0.5493799448
-0.032809901983 0.043400261551 0.54839366674
-0.032465323806 0.042806897312 0.54628765583
-0.034007180482 0.04284607619 0.54309159517
-0.029386553913 0.041471213102 0.54496926069
-0.033686630428 0.042277421802 0.54066026211
-0.034183826298 0.041407067329 0.53883528709
-0.036381050944 0.041663039476 0.53383970261
-0.034518372267 0.041011370718 0.53429567814
-0.036192435771 0.040933661163 0.52878654003
-0.030789814889 0.038645070046 0.53440243006
-0.038143698126 0.040520757437 0.52388268709
-0.034040328115 0.03836869821 0.525344491
-0.036377944052 0.037988428026 0.52063578367
-0.03294062987 0.03630919382 0.52106666565
-0.03684085235 0.037412844598 0.5151361227
-0.032789960504 0.034953702241 0.51587420702
-0.036110978574 0.036558806896 0.51310002804
-0.033381424844 0.035486076027 0.51390898228
-0.038984328508 0.036997649819 0.50829988718
-0.037905629724 0.036304727197 0.5077804327
-0.03411064297 0.0351129435 0.51035380363
-0.033579386771 0.035699792206 0.50795459747
-0.034653887153 0.037587404251 0.50332087278
-0.039396800101 0.038334522396 0.49742603302
-0.035240106285 0.036020904779 0.50143271685
-0.034322462976 0.033728193492 0.50014311075
-0.034826587886 0.031498838216 0.49893218279
-0.035408437252 0.02911231108 0.49752432108
-0.032603025436 0.025697993115 0.49915778637
-0.032143056393 0.022669093683 0.50019800663
-0.031127071008 0.020026057959 0.49894049764
-0.029598979279 0.017266262323 0.49921342731
-0.028239421546 0.014906498604 0.49932155013
-0.026588711888 0.051349241287 0.57328242064
-0.02541449666 0.049276903272 0.57359707355
-0.031006742269 0.049738280475 0.56559884548
-0.029793469235 0.051739063114 0.56783610582
-0.029717124999 0.0482407175 0.56550824642
-0.019644437358 0.065530754626 0.58132338524
-0.028154224157 0.055685389787 0.56947010756
-0.029407251626 0.048897661269 0.56435871124
-0.029446223751 0.045898560435 0.56131625175
-0.027267636731 0.052493799478 0.56741476059
-0.026332885027 0.055928789079 0.56885743141
-0.031067220494 0.045237086713 0.55294841528
-0.031499732286 0.043798424304 0.55052709579
-0.034872762859 0.045839093626 0.54486864805
-0.030649432912 0.043336853385 0.54830890894
-0.03537664935 0.045168664306 0.54091751575
-0.030003117397 0.042280454189 0.54617190361
-0.028820896521 0.041784938425 0.54387766123
-0.036182057112 0.044513512403 0.53541791439
-0.029183266684 0.040487751365 0.54147386551
-0.032647050917 0.041827309877 0.53802317381
-0.02960825339 0.03994802013 0.53820091486
-0.036726102233 0.042902991176 0.52990579605
-0.034757073969 0.040943391621 0.52972573042
-0.035100270063 0.040111225098 0.52737301588
-0.034650363028 0.039952047169 0.52658462524
-0.031577534974 0.038994699717 0.52747899294
-0.036261685193 0.039617225528 0.52229350805
-0.030476072803 0.037108812481 0.52672535181
-0.03745219484 0.039984229952 0.5187741518
-0.033318705857 0.037363555282 0.52208393812
-0.036412607878 0.038457330316 0.51799058914
-0.03446329385 0.03795466572 0.51827895641
-0.036297712475 0.037920374423 0.5152682662
-0.036915902048 0.038706704974 0.51286560297
-0.031675465405 0.036411896348 0.51744508743
-0.037275385112 0.038433916867 0.51115751266
-0.034988023341 0.036396861076 0.51073288918
-0.038282088935 0.037993621081 0.50691986084
-0.038829438388 0.037993565202 0.50384420156
-0.037597756833 0.037874266505 0.50461000204
-0.039287783206 0.038861729205 0.50011527538
-0.038945611566 0.038633015007 0.49949425459
-0.039140455425 0.038574043661 0.49835500121
-0.035268422216 0.03605626896 0.49952098727
-0.036782573909 0.033571064472 0.49653884768
-0.033263325691 0.029830591753 0.49929180741
-0.032763808966 0.02775102295 0.49901971221
-0.031663324684 0.023804401979 0.49861291051
-0.029589911923 0.021779429168 0.50050491095
-0.029440706596 0.018849998713 0.49875926971
-0.029359927401 0.016140390188 0.49779292941
-0.028892500326 0.05323061347 0.57154023647
-0.028507331386 0.051580131054 0.56999993324
-0.032659400254 0.05183166638 0.56409174204
-0.028884407133 0.048979777843 0.56657546759
-0.026372373104 0.050950791687 0.57010412216
-0.030127163976 0.048626668751 0.56222999096
-0.028690505773 0.049891732633 0.5649138689
-0.028697617352 0.046537317336 0.55962598324
-0.032540109009 0.047182720155 0.55394643545
-0.033332616091 0.046310849488 0.55116009712
-0.029128875583 0.045295376331 0.55216604471
-0.032597653568 0.045575659722 0.54855567217
-0.030898606405 0.045484360307 0.54897582531
-0.028592249379 0.04382295534 0.54944711924
-0.030027063563 0.044001255184 0.54638946056
-0.027758736163 0.043109260499 0.54651969671
-0.029433110729 0.043970230967 0.54372614622
-0.033716090024 0.044596794993 0.53906285763
-0.03392867744 0.044061858207 0.5380345583
-0.032530043274 0.042937096208 0.53774160147
-0.034526236355 0.042374402285 0.53312802315
-0.028787977993 0.039561089128 0.53713470697
-0.032860357314 0.040717009455 0.53188079596
-0.030580038205 0.038462307304 0.53202724457
-0.034062553197 0.040334045887 0.52566039562
-0.030758878216 0.038861684501 0.5267803669
-0.032627735287 0.038171544671 0.52074831724
-0.030622333288 0.037590563297 0.52024805546
-0.034413404763 0.038297031075 0.51550173759
-0.031979456544 0.03684014827 0.5160599947
-0.034886565059 0.037549864501 0.51181274652
-0.03117293492 0.036138236523 0.51340734959
-0.031769581139 0.036147143692 0.51118677855
-0.033044889569 0.037088420242 0.50825852156
-0.037785790861 0.03866930306 0.50110399723
-0.035890948027 0.038543984294 0.50036329031
-0.03372958675 0.037759818137 0.50153779984
-0.035640504211 0.037863194942 0.49847650528
-0.033245015889 0.035802911967 0.50003194809
-0.032251313329 0.034293666482 0.49986001849
-0.032581631094 0.03258119151 0.49899837375
-0.032922629267 0.03060718067 0.49826824665
-0.032127331942 0.029481679201 0.49850270152
-0.029973920435 0.0256347619 0.49966838956
-0.029400590807 0.024316113442 0.50052326918
-0.029172061011 0.021943897009 0.49851664901
-0.028214234859 0.020176762715 0.49876138568
-0.027601307258 0.017462980002 0.49862080812
-0.026301190257 0.0526464656 0.57313597202
-0.026358082891 0.054043103009 0.57301276922
-0.024442851543 0.049624342471 0.57250082493
-0.031809631735 0.052442986518 0.56346487999
-0.027010416612 0.049478687346 0.56789445877
-0.026405820623 0.057099144906 0.57204252481
-0.027079064399 0.048293869942 0.56421875954
-0.027127983049 0.048754952848 0.56557780504
-0.029817927629 0.047294475138 0.55605590343
-0.025353403762 0.051099896431 0.56641316414
-0.029012484476 0.052269313484 0.56290751696
-0.029002577066 0.045372460037 0.55266016722
-0.031167658046 0.046768303961 0.54871356487
-0.028769373894 0.044928234071 0.55014413595
-0.033115383238 0.047301597893 0.54383444786
-0.029048006982 0.044360950589 0.5478630662
-0.031688261777 0.044950831681 0.54381555319
-0.033140603453 0.045898981392 0.54114341736
-0.027862813324 0.041873253882 0.54276525974
-0.033627603203 0.045104991645 0.53545367718
-0.029036864638 0.041455578059 0.53936338425
-0.032965209335 0.04352792725 0.53363120556
-0.029317090288 0.040615353733 0.53713721037
-0.029387515038 0.040731012821 0.53543895483
-0.0309033636 0.040249720216 0.53199827671
-0.033452615142 0.041628595442 0.52775770426
-0.031944710761 0.040248338133 0.52791535854
-0.029680345207 0.039170283824 0.52865892649
-0.033150400966 0.040116038173 0.52289664745
-0.030872909352 0.03795267269 0.52282828093
-0.031190916896 0.03919762373 0.52164965868
-0.03411315009 0.0393637456 0.51709216833
-0.035595849156 0.040125984699 0.51480734348
-0.029833024368 0.037618130445 0.51802718639
-0.034101482481 0.038623493165 0.51297038794
-0.029943626374 0.03771944344 0.51510637999
-0.035296447575 0.039208970964 0.50901478529
-0.033935032785 0.037909526378 0.50902485847
-0.036071419716 0.038817223161 0.50562810898
-0.031097169966 0.036608241498 0.50988548994
-0.034020993859 0.037798326463 0.504981637
-0.034019205719 0.038115750998 0.50350415707
-0.036225046962 0.039434827864 0.50002354383
-0.037693034858 0.040293831378 0.4968945384
-0.032848566771 0.037340328097 0.49958920479
-0.031090620905 0.035642441362 0.49925997853
-0.033875487745 0.033629722893 0.4964248538
-0.030721057206 0.031411416829 0.49873325229
-0.030562290922 0.028647081926 0.4982958436
-0.028456712142 0.027244286612 0.49943599105
-0.030053049326 0.024449065328 0.49714928865
-0.028176924214 0.018909588456 0.49881747365
-0.025486504659 0.016527891159 0.49923321605
-0.027591234073 0.054477982223 0.57213932276
-0.023174798116 0.063845537603 0.57988923788
-0.026221435517 0.051455017179 0.57020282745
-0.023491732776 0.050491906703 0.5733525753
-0.030491633341 0.051250997931 0.56191504002
-0.025266531855 0.053938053548 0.57104301453
-0.025783346966 0.048404596746 0.56406104565
-0.02906440571 0.049166213721 0.55876541138
-0.027085131034 0.05092009902 0.56479561329
-0.027343781665 0.062686719 0.56827586889
-0.029703436419 0.046698592603 0.55023181438
-0.027825994417 0.049154158682 0.55864799023
-0.029525047168 0.045784294605 0.54678571224
-0.025421142578 0.044426299632 0.54904204607
-0.028184270486 0.044443394989 0.54605084658
-0.026389421895 0.044230807573 0.54587167501
-0.028477562591 0.043445024639 0.54366672039
-0.028629666194 0.043293245137 0.54172736406
-0.025602333248 0.041576251388 0.5427981019
-0.0316667445 0.043268956244 0.536226511
-0.031463600695 0.043367415667 0.53336060047
-0.029970757663 0.042274929583 0.53594368696
-0.02875691466 0.041369013488 0.53520745039
-0.029365390539 0.040858644992 0.53404402733
-0.026250861585 0.040036045015 0.53426259756
-0.029513934627 0.039654102176 0.53114116192
-0.028857260942 0.03837376833 0.52525186539
-0.031926259398 0.03987409547 0.52142482996
-0.029944801703 0.037373464555 0.52035111189
-0.028667880222 0.037521775812 0.5195518136
-0.033535223454 0.040013480932 0.51398259401
-0.030172083527 0.036987859756 0.51194047928
-0.029506599531 0.037415508181 0.51142960787
-0.030134864151 0.037998456508 0.50503098965
-0.037050742656 0.040956962854 0.49645864964
-0.030252413824 0.037998132408 0.50138229132
-0.033409301192 0.036654066294 0.49734216928
-0.031619522721 0.034643154591 0.4978762269
-0.030135551468 0.032923262566 0.49908658862
-0.029456967488 0.030188990757 0.49913167953
-0.028829980642 0.027731321752 0.49796834588
-0.02653204836 0.023824790493 0.49963524938
-0.026703409851 0.021783370525 0.4987668097
-0.025838455185 0.020067835227 0.49917259812
-0.025123646483 0.017917869613 0.4990311861
-0.023455997929 0.015443638898 0.49917531013
-0.024966878816 0.060581192374 0.57887423038
-0.025758655742 0.054919365793 0.57518047094
-0.025261810049 0.05791079998 0.57571774721
-0.021300569177 0.055120591074 0.57619965076
-0.027355592698 0.050762712955 0.5665371418
-0.022972354665 0.05020647496 0.56996107101
-0.024737767875 0.050560489297 0.56775170565
-0.028277037665 0.050037197769 0.56051957607
-0.030104152858 0.050799775869 0.55817562342
-0.022593637928 0.052017200738 0.56644922495
-0.024293674156 0.048763900995 0.56152117252
-0.027433564886 0.057550445199 0.56654936075
-0.023083647713 0.051710128784 0.56409627199
-0.024522788823 0.050125092268 0.56182461977
-0.025317149237 0.054796464741 0.5636459589
-0.024874405935 0.04502793774 0.55248588324
-0.031456634402 0.056105609983 0.55961722136
-0.028554733843 0.04585493356 0.54631900787
-0.029868640006 0.055841445923 0.56232887506
-0.029871298 0.045534782112 0.54304242134
-0.029643200338 0.044351082295 0.5414288044
-0.030480567366 0.044876974076 0.53883445263
-0.02677786164 0.042968500406 0.5415391922
-0.030001459643 0.044671174139 0.53634899855
-0.025714259595 0.041986901313 0.53985959291
-0.026403158903 0.041723966599 0.53819948435
-0.027629600838 0.042492348701 0.53526079655
-0.026470270008 0.041241917759 0.53530102968
-0.030045824125 0.042518038303 0.53037440777
-0.030776152387 0.04249413684 0.52781116962
-0.029404990375 0.041282385588 0.53487247229
-0.030210275203 0.04090275988 0.52575874329
-0.027918921784 0.038875181228 0.52630275488
-0.030489565805 0.041044168174 0.52255630493
-0.031577128917 0.041725382209 0.5201241374
-0.028553923592 0.039275679737 0.52364313602
-0.03134739399 0.040895033628 0.51849657297
-0.02992327325 0.039408951998 0.51904350519
-0.030630648136 0.040314443409 0.51744920015
-0.029695147648 0.03847245127 0.51736295223
-0.029774531722 0.039958871901 0.51509487629
-0.032573666424 0.039909195155 0.51127117872
-0.031200490892 0.038681063801 0.51178091764
-0.030234042555 0.038621012121 0.51114344597
-0.030233858153 0.038850553334 0.50843238831
-0.034009061754 0.039090771228 0.50434190035
-0.031304951757 0.03881829232 0.50474542379
-0.035865314305 0.040914811194 0.49951156974
-0.031768545508 0.039720866829 0.5014770031
-0.035365138203 0.040596261621 0.49685579538
-0.028852555901 0.039550617337 0.50138610601
-0.032674588263 0.039000820369 0.49559345841
-0.028793375939 0.037011291832 0.50038725138
-0.029100107029 0.035937670618 0.49875202775
-0.029127491638 0.033980946988 0.49836227298
-0.029142741114 0.032338697463 0.49824616313
-0.028012661263 0.029372395948 0.49843737483
-0.026495736092 0.02593607083 0.49965661764
-0.02716748789 0.024904351681 0.49737119675
-0.025331920013 0.022805536166 0.49898245931
-0.024256931618 0.019912082702 0.49919140339
-0.024568147957 0.017067668959 0.49770465493
-0.024204015732 0.057199396193 0.57718068361
-0.022480389103 0.053734373301 0.57733720541
-0.016870262101 0.065941922367 0.58445769548
-0.020215768367 0.059810843319 0.5775462985
-0.022410169244 0.058674022555 0.57561379671
-0.02327965945 0.053595360368 0.571439147
-0.021172178909 0.051665499806 0.57242709398
-0.020640708506 0.05813761428 0.57468354702
-0.022797521204 0.049979880452 0.56847041845
-0.024340905249 0.058612398803 0.56860327721
-0.022730277851 0.062853045762 0.57325321436
-0.025627018884 0.047616045922 0.55376172066
-0.027004217729 0.04871416837 0.5504245162
-0.02684747614 0.047923129052 0.54954695702
-0.025755137205 0.050123788416 0.56047362089
-0.027301017195 0.046856671572 0.54580974579
-0.028684780002 0.046580627561 0.54401469231
-0.025076510385 0.044279489666 0.54721981287
-0.03050199151 0.046990990639 0.54011023045
-0.02476788871 0.04349475354 0.54501157999
-0.025782970712 0.043758034706 0.54177826643
-0.024085566401 0.042282901704 0.54186856747
-0.027356250212 0.043745052069 0.53834611177
-0.028112918139 0.043268337846 0.53668558598
-0.026011856273 0.042887426913 0.53756642342
-0.030582277104 0.050860360265 0.55089348555
-0.028432570398 0.04182703793 0.53012347221
-0.025695230812 0.040747459978 0.53033864498
-0.028007347137 0.041208844632 0.52953016758
-0.029924966395 0.042725522071 0.52493703365
-0.026617113501 0.040369529277 0.52756083012
-0.029805120081 0.041642699391 0.52258193493
-0.026725899428 0.038930784911 0.52272152901
-0.027239864692 0.038623854518 0.51841211319
-0.027977354825 0.038234613836 0.51537787914
-0.026950972155 0.038189757615 0.51521980762
-0.028857471421 0.03735158965 0.51001858711
-0.032280571759 0.0405908674 0.50510931015
-0.02780319564 0.038216855377 0.50807493925
-0.027609568089 0.03926744312 0.50685173273
-0.034492753446 0.040958337486 0.49932149053
-0.027339378372 0.039609696716 0.50448662043
-0.033041909337 0.041566848755 0.49563083053
-0.029032379389 0.03862117976 0.49994549155
-0.027225693688 0.031607922167 0.4987577498
-0.027439378202 0.029472874478 0.49745890498
-0.026098741218 0.027133278549 0.49885392189
-0.024707220495 0.026604896411 0.49895474315
-0.023930480704 0.023047970608 0.49885970354
-0.023228047416 0.02131607756 0.49903312325
-0.023034052923 0.018981333822 0.49837717414
-0.022007677704 0.016703650355 0.49883762002
-0.023695772514 0.057878505439 0.57844674587
-0.020567897707 0.054423332214 0.57998746634
-0.02128206566 0.056200556457 0.57774215937
-0.020526546985 0.062257330865 0.58194106817
-0.020901158452 0.051982115954 0.57465666533
-0.022775674239 0.056049305946 0.57500588894
-0.022406108677 0.052611541003 0.57470744848
-0.020334942266 0.055404108018 0.57454353571
-0.026624657214 0.051826845855 0.56393772364
-0.017623195425 0.066286593676 0.58320516348
-0.019462388009 0.065205581486 0.57905763388
-0.0272853598 0.050462018698 0.55906677246
-0.02281665802 0.053870342672 0.56893444061
-0.024051344022 0.062131706625 0.57329314947
-0.021596213803 0.050298709422 0.56184482574
-0.022799866274 0.049205090851 0.55916386843
-0.022625455633 0.049144379795 0.55719834566
-0.026124062017 0.046082429588 0.54852771759
-0.022208185866 0.047546960413 0.55642932653
-0.023000421003 0.044799864292 0.54847311974
-0.025125913322 0.050091937184 0.5568035841
-0.02360862121 0.044137451798 0.54416775703
-0.026058694348 0.044680304825 0.54045981169
-0.024759963155 0.047059681267 0.55222320557
-0.022983565927 0.042845085263 0.5407961607
-0.026827899739 0.044096492231 0.53644645214
-0.023879956454 0.04235606268 0.53771150112
-0.024283053353 0.041934393346 0.53602975607
-0.024675844237 0.04097481817 0.53356796503
-0.026084247977 0.041864752769 0.52970224619
-0.025338619947 0.040721789002 0.52941310406
-0.02410124056 0.040863070637 0.52807933092
-0.026159668341 0.040769219398 0.52594196796
-0.026823099703 0.041453506798 0.52305787802
-0.024824125692 0.03982122615 0.5237904191
-0.029924482107 0.042349465191 0.5175845027
-0.027305517346 0.040451686829 0.51831018925
-0.027873152867 0.040879324079 0.51703304052
-0.026636511087 0.039337143302 0.51617455482
-0.027553243563 0.039910566062 0.51391077042
-0.030403712764 0.040819227695 0.50992292166
-0.027041375637 0.03901520744 0.51230090857
-0.027920268476 0.039778906852 0.50979739428
-0.031984273344 0.040821377188 0.50455534458
-0.03056342341 0.040055904537 0.50483977795
-0.031052023172 0.040727183223 0.50242656469
-0.032633960247 0.04172341153 0.49904990196
-0.032546214759 0.043253090233 0.49748417735
-0.031034443527 0.041336759925 0.49830257893
-0.028599686921 0.039969217032 0.49917054176
-0.031045813113 0.039137538522 0.49546134472
-0.026635462418 0.035952284932 0.49948978424
-0.028803372756 0.035278685391 0.49682965875
-0.026805710047 0.033236697316 0.49841272831
-0.025656761602 0.029786404222 0.49898868799
-0.024200996384 0.028191145509 0.49898084998
-0.024212097749 0.025013647974 0.49896320701
-0.024899285287 0.02145537734 0.49578666687
-0.022178994492 0.016626171768 0.49711996317
-0.019482078031 0.014480705373 0.49909639359
-0.01675006561 0.05849648267 0.5874555707
-0.020712392405 0.055695697665 0.57921844721
-0.022681908682 0.055132839829 0.57655096054
-0.019861020148 0.059742685407 0.57950222492
-0.018255248666 0.055776018649 0.57717323303
-0.020110055804 0.051876690239 0.57468640804
-0.018927948549 0.053059678525 0.57217764854
-0.022692212835 0.051616735756 0.56381183863
-0.020817855373 0.051473252475 0.56976026297
-0.021461231634 0.056681524962 0.57187992334
-0.021139249206 0.050814781338 0.56788605452
-0.0180107411 0.055126104504 0.57104712725
-0.026866046712 0.05272321403 0.56436437368
-0.022963419557 0.056262664497 0.56690859795
-0.02413935028 0.049014504999 0.55331015587
-0.020455697551 0.052464194596 0.56205683947
-0.024768842384 0.047958754003 0.55137616396
-0.021374532953 0.048796575516 0.55177557468
-0.021545244381 0.049302957952 0.55933272839
-0.025020392612 0.046480689198 0.54645937681
-0.025420453399 0.045974384993 0.54494035244
-0.022024430335 0.044621683657 0.54796433449
-0.025541055948 0.045341715217 0.54192358255
-0.025832945481 0.046168878675 0.54075032473
-0.023804331198 0.044469658285 0.54093295336
-0.026184603572 0.044883240014 0.5365306139
-0.02624312602 0.044196091592 0.53508901596
-0.024183928967 0.043061546981 0.53571528196
-0.027509119362 0.044404387474 0.52990549803
-0.025068486109 0.042895164341 0.53231215477
-0.027108425274 0.044007938355 0.52759391069
-0.024360571057 0.04252769053 0.52915751934
-0.026452517137 0.042829100043 0.5262786746
-0.024621697143 0.041087191552 0.52670001984
-0.023834930733 0.041207715869 0.52581059933
-0.028232477605 0.042278852314 0.52012687922
-0.025689065456 0.041461709887 0.52182900906
-0.027109229937 0.041947565973 0.51902985573
-0.026552697644 0.041443895549 0.51846593618
-0.027897790074 0.041658271104 0.51604622602
-0.02753786929 0.041003853083 0.51465266943
-0.026456525549 0.040494639426 0.51356935501
-0.025893164799 0.039797559381 0.5110142827
-0.027712602168 0.04030976817 0.50766688585
-0.028313618153 0.040344722569 0.50564312935
-0.028790526092 0.041316606104 0.50231558084
-0.028313448653 0.041308309883 0.50075751543
-0.026050841436 0.039738662541 0.50083738565
-0.025574974716 0.038412231952 0.50052171946
-0.025027729571 0.036843545735 0.4993185699
-0.024797374383 0.034391790628 0.49931192398
-0.025165727362 0.032186623663 0.49869453907
-0.023385774344 0.030113423243 0.49919572473
-0.02244255878 0.027383947745 0.49927297235
-0.021824512631 0.025145936757 0.49956128001
-0.022246545181 0.022991865873 0.49857324362
-0.020471591502 0.02080254443 0.49953866005
-0.019780246541 0.018683893606 0.49980530143
-0.019792037085 0.016152502969 0.49879425764
-0.014847285114 0.062830746174 0.59294217825
-0.013487190008 0.059383545071 0.59220480919
-0.020482579246 0.061518248171 0.5868537426
-0.015076992102 0.057179480791 0.58877056837
-0.017863932997 0.055872306228 0.58328461647
-0.020032489672 0.057162005454 0.57909607887
-0.019527858123 0.054801568389 0.57821547985
-0.017582064494 0.063301943243 0.58424812555
-0.0198332984 0.054320000112 0.57606750727
-0.014861854725 0.065562844276 0.58608740568
-0.01840964146 0.063640974462 0.58248794079
-0.020946957171 0.053590148687 0.57309097052
-0.020569887012 0.051649298519 0.56703037024
-0.024514088407 0.052287720144 0.56123155355
-0.019506637007 0.053946468979 0.57072794437
-0.022437686101 0.051214713603 0.5598603487
-0.025384049863 0.051909282804 0.55660521984
-0.024144677445 0.050360314548 0.55617374182
-0.024693150073 0.050612885505 0.55453705788
-0.017946217209 0.053957588971 0.56665879488
-0.023157715797 0.052639402449 0.56159669161
-0.023079669103 0.047201432288 0.54933810234
-0.022131942213 0.052985843271 0.55977034569
-0.024076027796 0.046239379793 0.54559832811
-0.024345327169 0.045805152506 0.54329270124
-0.0212957412 0.044564165175 0.54450398684
-0.023696137592 0.054596446455 0.55770897865
-0.022596847266 0.043859794736 0.53986078501
-0.020511120558 0.043623525649 0.53995317221
-0.021119285375 0.043887712061 0.53665977716
-0.02454563044 0.04429557547 0.53474038839
-0.022893380374 0.043489739299 0.53446704149
-0.023943247274 0.043349064887 0.5323420167
-0.023301182315 0.041076820344 0.530780375
-0.022782161832 0.043119102716 0.53016626835
-0.023992992938 0.040850840509 0.52687257528
-0.024483516812 0.042321242392 0.52557182312
-0.023957394063 0.042070649564 0.52498328686
-0.023969260976 0.041036669165 0.52067470551
-0.026031050831 0.043021343648 0.51813578606
-0.023335725069 0.040665294975 0.52059882879
-0.027777899057 0.043035499752 0.51486301422
-0.023905809969 0.040390837938 0.51671797037
-0.023567121476 0.040911376476 0.51645827293
-0.025215703994 0.041913505644 0.5134408474
-0.02386954613 0.040090925992 0.51285076141
-0.024154478684 0.040649477392 0.51160621643
-0.024635788053 0.039788153023 0.51042211056
-0.028528088704 0.041935175657 0.50542837381
-0.025262927637 0.040897093713 0.50648975372
-0.027644257993 0.04154959321 0.5031645298
-0.030040979385 0.043151225895 0.49820667505
-0.025423955172 0.041767500341 0.50120693445
-0.026473255828 0.041393734515 0.49896940589
-0.025795286521 0.040136761963 0.49939230084
-0.026059566066 0.038054976612 0.49715963006
-0.024992989376 0.035176809877 0.49731704593
-0.022678066045 0.032566010952 0.49923166633
-0.02298701182 0.030820680782 0.49871179461
-0.023019859567 0.028764240444 0.49824640155
-0.021564630792 0.026310387999 0.49859452248
-0.020618652925 0.023974096403 0.49896502495
-0.019674671814 0.021945176646 0.49912813306
-0.021289719269 0.019805662334 0.49644199014
-0.018078245223 0.017447127029 0.49898123741
-0.018174856901 0.015521879308 0.4985473156
-0.015843909234 0.064921669662 0.59364795685
-0.014170438051 0.060774069279 0.59279942513
-0.014863772318 0.060301221907 0.59051674604
-0.018983807415 0.061507947743 0.58667433262
-0.012919742614 0.058794345707 0.59074324369
-0.017740469426 0.053303100169 0.57685309649
-0.016375314444 0.053785573691 0.57734751701
-0.017932454124 0.055570587516 0.57442337275
-0.018460147083 0.053559940308 0.57080793381
-0.018353002146 0.055987223983 0.5731356144
-0.023325758055 0.052543662488 0.56052404642
-0.012249618769 0.051231138408 0.5705216527
-0.020001428202 0.062283612788 0.57416135073
-0.016184695065 0.053542654961 0.56800198555
-0.020527681336 0.049664970487 0.55748033524
-0.019383845851 0.061247423291 0.57011818886
-0.022593183443 0.049914140254 0.55165582895
-0.019495528191 0.050993118435 0.56097912788
-0.021837886423 0.057224635035 0.5657544136
-0.019358288497 0.046683572233 0.55203646421
-0.02206745185 0.047914780676 0.54790401459
-0.019046895206 0.051145337522 0.55833172798
-0.019271777943 0.050506968051 0.55464208126
-0.022772271186 0.051879614592 0.55533605814
-0.021282216534 0.045016162097 0.54045194387
-0.023856492713 0.045465994626 0.535415411
-0.026127072051 0.047777671367 0.54579633474
-0.020727071911 0.043718319386 0.53321456909
-0.023862503469 0.044243842363 0.52938342094
-0.023498892784 0.044357918203 0.52836042643
-0.025372928008 0.044312104583 0.52548134327
-0.022799476981 0.043807543814 0.52764832973
-0.021711556241 0.042261276394 0.52692377567
-0.025507541373 0.044212620705 0.52183640003
-0.023997889832 0.042685620487 0.52231740952
-0.026674389839 0.044296391308 0.51806306839
-0.02266323939 0.041322227567 0.51944935322
-0.023621795699 0.042294472456 0.51865768433
-0.02535373345 0.042896136642 0.51577335596
-0.026693057269 0.043080624193 0.51233565807
-0.023541592062 0.041989278048 0.51410913467
-0.024923492223 0.042231287807 0.5115442276
-0.02572468482 0.041782028973 0.50819689035
-0.023900972679 0.041415378451 0.50847733021
-0.027627801523 0.042512543499 0.50307530165
-0.023025389761 0.041289053857 0.5051048398
-0.029074305668 0.043784152716 0.49685072899
-0.024737445638 0.042395576835 0.50022798777
-0.025072954595 0.039528794587 0.49859154224
-0.023813219741 0.036790803075 0.4983587563
-0.023571379483 0.033528488129 0.49793222547
-0.020780120045 0.030105620623 0.49908602238
-0.021453859285 0.0282367412 0.49791964889
-0.019614843652 0.025776548311 0.49900478125
-0.019021047279 0.02301662229 0.49856185913
-0.018161101267 0.020466217771 0.49903568625
-0.018104415387 0.019165189937 0.49848610163
-0.016671730205 0.016265599057 0.4989144206
-0.013509710319 0.061632093042 0.59265559912
-0.016960432753 0.059035245329 0.58557921648
-0.018486199901 0.059282440692 0.5829411149
-0.017173899338 0.058663621545 0.58115381002
-0.01742191799 0.059583317488 0.57948440313
-0.02088303864 0.054812740535 0.56781971455
-0.016304053366 0.06468334049 0.58010113239
-0.017369968817 0.05149865523 0.5674149394
-0.022309897467 0.052902568132 0.56194615364
-0.018750874326 0.051560368389 0.56353396177
-0.018515326083 0.058533422649 0.57314664125
-0.02044076845 0.050533726811 0.55725902319
-0.019896516576 0.063028141856 0.57373774052
-0.018707115203 0.06364492327 0.57296061516
-0.022585369647 0.054854858667 0.56569522619
-0.021753259003 0.049612957984 0.54994320869
-0.017592225224 0.050164744258 0.55691945553
-0.021452812478 0.047598753124 0.54629558325
-0.017195846885 0.049302708358 0.55368429422
-0.015235189348 0.053651928902 0.560972929
-0.021118553355 0.04940770939 0.54997301102
-0.022988915443 0.051487904042 0.55258333683
-0.022650195286 0.046098694205 0.53576141596
-0.024350389838 0.046258177608 0.53199106455
-0.024822494015 0.048753287643 0.54606330395
-0.028546823189 0.049254890531 0.54477244616
-0.023814510554 0.04521856457 0.52828645706
-0.020386824384 0.042820330709 0.52923446894
-0.020756039768 0.042916730046 0.52791970968
-0.022345216945 0.044129420072 0.52483814955
-0.021986369044 0.042318653315 0.52304393053
-0.022370630875 0.042739201337 0.52235418558
-0.021689772606 0.042724847794 0.51851886511
-0.025694034994 0.044232200831 0.51279056072
-0.02224900946 0.041529655457 0.51540458202
-0.025371313095 0.043356977403 0.51053470373
-0.02241137065 0.041666582227 0.51166898012
-0.024364091456 0.042344648391 0.5064136982
-0.026595713571 0.04312697798 0.50189232826
-0.026983812451 0.043599370867 0.49919894338
-0.027448365465 0.045016974211 0.49646809697
-0.022730736062 0.04172199592 0.50081306696
-0.02294463478 0.040925536305 0.49940881133
-0.02329531312 0.039317943156 0.49887254834
-0.022216824815 0.035405684263 0.49828934669
-0.020415728912 0.033349648118 0.49992388487
-0.020698448643 0.031406909227 0.49843215942
-0.019961751997 0.027842912823 0.49814042449
-0.018150333315 0.024701874703 0.49885925651
-0.017690993845 0.021844331175 0.49864649773
-0.01570645906 0.019413894042 0.49895948172
-0.015861129388 0.017780179158 0.49914881587
-0.015153777786 0.067418895662 0.59125107527
-0.013927274384 0.061442650855 0.59061080217
-0.010894277133 0.054481122643 0.58307015896
-0.017070733011 0.054131727666 0.57393467426
-0.014009630308 0.065000891685 0.58360242844
-0.016254384071 0.052273508161 0.57094103098
-0.015574302524 0.054226621985 0.57199782133
-0.019642584026 0.053089559078 0.5634213686
-0.015295440331 0.054079454392 0.57110214233
-0.018107045442 0.062118854374 0.57642298937
-0.015926167369 0.052560433745 0.56841373444
-0.019276345149 0.050903681666 0.55891650915
-0.016736729071 0.056211251765 0.56767177582
-0.01908400096 0.053585320711 0.56541240215
-0.015423724428 0.061885245144 0.57124060392
-0.016532838345 0.048706736416 0.55527287722
-0.017825270072 0.051536999643 0.56353348494
-0.01826068759 0.048427108675 0.5508313179
-0.019332161173 0.0477594845 0.54983836412
-0.020273894072 0.056259840727 0.56104004383
-0.01903363131 0.048265956342 0.54707682133
-0.017324021086 0.052205581218 0.55526816845
-0.018909262493 0.053306169808 0.556858778
-0.01994462125 0.052593823522 0.55527484417
-0.019116481766 0.048912674189 0.54797685146
-0.019198028371 0.046093326062 0.53808104992
-0.019928459078 0.045845970511 0.53692919016
-0.019531959668 0.044301312417 0.53563350439
-0.019321838394 0.044667832553 0.53463721275
-0.03037750721 0.053656991571 0.55097216368
-0.02034037374 0.044201720506 0.53132486343
-0.019094230607 0.044473502785 0.53002029657
-0.02211442776 0.045252460986 0.52477061749
-0.021697798744 0.044164452702 0.52435302734
-0.019534898922 0.044886745512 0.52387964725
-0.019995015115 0.043448992074 0.52353346348
-0.02166878432 0.042587846518 0.51956421137
-0.020217223093 0.044136647135 0.52062785625
-0.020068079233 0.042928505689 0.51970595121
-0.021235812455 0.042454376817 0.51566159725
-0.024538470432 0.044086117297 0.51195406914
-0.019953034818 0.042122863233 0.51498389244
-0.023995757103 0.04371156171 0.51001924276
-0.021879578009 0.041808601469 0.50960844755
-0.021885287017 0.042212799191 0.50656455755
-0.02292579785 0.043981216848 0.50336325169
-0.021625626832 0.042967896909 0.50383144617
-0.021580316126 0.043102420866 0.50175368786
-0.022078989074 0.042034741491 0.49902248383
-0.021348353475 0.039701934904 0.49902185798
-0.022123254836 0.03759033978 0.49840202928
-0.020984068513 0.036184672266 0.49867004156
-0.019545387477 0.032583683729 0.49867227674
-0.018632708117 0.030077924952 0.49929949641
-0.018352545798 0.028522675857 0.49878668785
-0.016976805404 0.026388902217 0.49926280975
-0.015831274912 0.023318363354 0.49962925911
-0.015144414268 0.021473886445 0.49945256114
-0.014308125712 0.016892183572 0.49899026752
-0.013859527186 0.0150411129 0.49919608235
-0.014726863243 0.067552261055 0.59337103367
-0.014856731519 0.064259015024 0.59211134911
-0.013226991519 0.062752135098 0.59288233519
-0.015056665055 0.062945120037 0.58982747793
-0.011381970719 0.061914410442 0.5928401947
-0.01527023036 0.06401899457 0.58906298876
-0.014803423546 0.059227086604 0.58424901962
-0.01525006257 0.058664549142 0.58430927992
-0.015035195276 0.061010297388 0.58121877909
-0.014826354571 0.059819854796 0.57867962122
-0.015456326306 0.064077869058 0.58056479692
-0.015059771016 0.052843187004 0.57014620304
-0.01587542519 0.059228800237 0.57446628809
-0.014104999602 0.051926035434 0.56831288338
-0.015988731757 0.063445694745 0.57629728317
-0.014292769134 0.051921442151 0.5666205287
-0.012206364423 0.053425658494 0.56617242098
-0.0154243242 0.049721539021 0.55763339996
-0.010156597942 0.066276468337 0.57046186924
-0.0099557535723 0.052912805229 0.56333827972
-0.017537012696 0.054287325591 0.56241691113
-0.016101300716 0.048348430544 0.5497700572
-0.018809769303 0.061506088823 0.56537848711
-0.01921960339 0.048168487847 0.54357546568
-0.014758057892 0.059677843004 0.56086289883
-0.019223371521 0.051267337054 0.55061578751
-0.023492509499 0.053082093596 0.55351251364
-0.021406382322 0.047073803842 0.53366494179
-0.01817012392 0.046018600464 0.53616112471
-0.019867051393 0.046127162874 0.53328114748
-0.017709951848 0.044771961868 0.53328186274
-0.02987383306 0.056877426803 0.55371838808
-0.021100595593 0.045928951353 0.52703952789
-0.020558090881 0.045661415905 0.52674931288
-0.018363080919 0.043424807489 0.5274245739
-0.020089974627 0.043119698763 0.52312159538
-0.019529828802 0.044291678816 0.52191907167
-0.021395485848 0.044636663049 0.51771783829
-0.023433165625 0.045459028333 0.51333129406
-0.020473660901 0.043672658503 0.5156365037
-0.023520609364 0.045089527965 0.51126813889
-0.019643435255 0.042418267578 0.51215493679
-0.020888285711 0.043268483132 0.50972157717
-0.020504226908 0.043292686343 0.50772607327
-0.024780634791 0.045113634318 0.49814888835
-0.020488202572 0.044374596328 0.50152909756
-0.020186427981 0.043284188956 0.500184834
-0.020803751424 0.040756821632 0.49901014566
-0.019900584593 0.038111135364 0.49895197153
-0.018888756633 0.036129344255 0.49923700094
-0.018131138757 0.034421697259 0.4993031919
-0.017645698041 0.032042656094 0.49861335754
-0.016689434648 0.028352977708 0.49888688326
-0.016172986478 0.025109030306 0.49858176708
-0.016592672095 0.023854937404 0.49628344178
-0.013812370598 0.020206557587 0.49884778261
-0.014074865729 0.018622571602 0.49846550822
-0.014390248805 0.065546557307 0.59174144268
-0.014661763795 0.064002819359 0.59046018124
-0.011987317353 0.062395539135 0.59202528
-0.014873922803 0.065366774797 0.5899438858
-0.010153531097 0.060714937747 0.5922909379
-0.012535928749 0.061847500503 0.58863151073
-0.010488264263 0.059387262911 0.59029537439
-0.010980455205 0.065016977489 0.58900791407
-0.012307973579 0.063592590392 0.58578401804
-0.013740709051 0.05711774528 0.58157980442
-0.011435955763 0.054315648973 0.57779318094
-0.016353102401 0.061939936131 0.57980138063
-0.012682277709 0.053721629083 0.5731137991
-0.011182923801 0.053514514118 0.57211339474
-0.012339021079 0.063459865749 0.5784317255
-0.015302042477 0.058028906584 0.57083058357
-0.013379703276 0.058847475797 0.56984573603
-0.016881452873 0.058983217925 0.56943887472
-0.013041485101 0.05141062662 0.56053596735
-0.015985602513 0.050020527095 0.55498850346
-0.015825003386 0.052353955805 0.56097567081
-0.016851563007 0.051123514771 0.55870199203
-0.014293292537 0.064235746861 0.56946027279
-0.01736122556 0.05309972167 0.55938541889
-0.016151336953 0.048170860857 0.54808950424
-0.014600781724 0.054777912796 0.5589222312
-0.014031209052 0.055514834821 0.55726122856
-0.016453329474 0.048071313649 0.54316037893
-0.018219863996 0.051411043853 0.55041253567
-0.019171876833 0.055523380637 0.5549390316
-0.015256529674 0.054530892521 0.5532964468
-0.017235746607 0.045793715864 0.53440761566
-0.017248300835 0.045894484967 0.53448140621
-0.017164513469 0.045723963529 0.5327193141
-0.018819890916 0.045324515551 0.52910250425
-0.017368089408 0.045320302248 0.52877050638
-0.017866523936 0.046081613749 0.52812582254
-0.020678406581 0.046985924244 0.52304399014
-0.019388601184 0.045636940747 0.52446806431
-0.018140004948 0.044477764517 0.52241569757
-0.021575782448 0.04646416381 0.51906919479
-0.019113387913 0.044800892472 0.52121835947
-0.018897838891 0.043993875384 0.51843649149
-0.019130190834 0.044069435447 0.51841562986
-0.017820345238 0.043753329664 0.5164604187
-0.020601999015 0.044083438814 0.51359379292
-0.020860999823 0.045044057071 0.51126867533
-0.01861876063 0.043906558305 0.51246893406
-0.019388902932 0.044251207262 0.51072990894
-0.019993877038 0.04381871596 0.50911509991
-0.020492073148 0.044129937887 0.50684970617
-0.022240377963 0.045010674745 0.50342917442
-0.020857626572 0.044396225363 0.50300067663
-0.021696947515 0.045164819807 0.49837484956
-0.020837526768 0.042823884636 0.49787580967
-0.018415015191 0.03984015435 0.49926495552
-0.020748766139 0.039191316813 0.49661278725
-0.018796818331 0.036195088178 0.49796280265
-0.017068270594 0.033272143453 0.49866303802
-0.01614660956 0.03041482158 0.49903532863
-0.014592212625 0.028758451343 0.49952554703
-0.014932570979 0.0267783124 0.49859079719
-0.014478067867 0.02488688007 0.49906459451
-0.012667804025 0.022105744109 0.49951630831
-0.015088008717 0.021479193121 0.49624145031
-0.011780432425 0.017506923527 0.49934467673
-0.011850884184 0.015878677368 0.49878424406
-0.013601009734 0.066282719374 0.59380686283
-0.01186079625 0.065148919821 0.59412449598
-0.012197012082 0.063932530582 0.59268158674
-0.013008842245 0.063232302666 0.59126579762
-0.011160634458 0.06291103363 0.59233283997
-0.010552985594 0.061625424773 0.5914312005
-0.013505683281 0.062325041741 0.58696895838
-0.0085944570601 0.057984277606 0.58953678608
-0.012357961386 0.059564705938 0.58472371101
-0.0089549934492 0.05613270402 0.5850237608
-0.010768194683 0.05560753122 0.58110624552
-0.0099511435255 0.065261349082 0.58554244041
-0.011961503886 0.057303994894 0.57894903421
-0.012526364997 0.056406002492 0.57768589258
-0.012229898944 0.05334988609 0.57212394476
-0.015660924837 0.054423592985 0.56719601154
-0.013823932037 0.056136086583 0.57307195663
-0.012988371775 0.058376334608 0.57417285442
-0.013029399328 0.051876097918 0.56492638588
-0.014037830755 0.052082818002 0.56225264072
-0.012559654191 0.064103871584 0.57495427132
-0.014660974033 0.052598316222 0.55913209915
-0.011889296584 0.057201046497 0.56813883781
-0.014215375297 0.051570598036 0.55616217852
-0.012893268839 0.055834680796 0.5650473237
-0.016456585377 0.051450934261 0.55164837837
-0.015971627086 0.057621642947 0.56372338533
-0.016314569861 0.049630831927 0.54799288511
-0.015548166819 0.049013163894 0.54738968611
-0.021319581196 0.061028294265 0.56498891115
-0.01875410229 0.049447987229 0.5378818512
-0.014442340471 0.061982043087 0.56027549505
-0.021779652685 0.059770219028 0.55903333426
-0.020873745903 0.05439478159 0.55129849911
-0.017855560407 0.047475449741 0.53232198954
-0.015333448537 0.047733083367 0.53093934059
-0.026264863089 0.050177175552 0.54510116577
-0.019825514406 0.047809429467 0.52516847849
-0.017756059766 0.045086462051 0.52515012026
-0.017932010815 0.046467371285 0.52447390556
-0.016377419233 0.04543703422 0.52378958464
-0.01759525761 0.045533176512 0.52117997408
-0.017092589289 0.045865274966 0.52016812563
-0.019805353135 0.045980460942 0.51655435562
-0.018685173243 0.046132795513 0.51645588875
-0.018497657031 0.044544931501 0.51528668404
-0.020908268169 0.046310607344 0.50987571478
-0.017522355542 0.043932288885 0.51046925783
-0.018020415679 0.044248316437 0.50670331717
-0.022463584319 0.047083161771 0.50043046474
-0.020646423101 0.04705157131 0.50123339891
-0.020504035056 0.045683845878 0.50019365549
-0.017194783315 0.042547654361 0.50012922287
-0.019684258848 0.041618913412 0.49765962362
-0.01710026525 0.038004800677 0.49910709262
-0.016666784883 0.036651536822 0.49903410673
-0.015452032909 0.03453816101 0.49925148487
-0.01417633146 0.03170722723 0.49979421496
-0.012534453534 0.024586154148 0.49938049912
-0.014013844542 0.023753413931 0.49662840366
-0.01181312371 0.020868401974 0.49880176783
-0.011050631292 0.019127950072 0.49921575189
-0.009794626385 0.015721304342 0.49938455224
-0.012411623262 0.066566541791 0.59340387583
-0.012601109222 0.06541556865 0.59201520681
-0.011523582041 0.065350525081 0.59233641624
-0.012172733434 0.064025513828 0.59082740545
-0.013103375211 0.063929207623 0.58866649866
-0.010798520409 0.060913544148 0.58852058649
-0.011704833247 0.062235388905 0.58656364679
-0.010254432447 0.057328175753 0.58333086967
-0.0089528849348 0.057481959462 0.5837546587
-0.010457026772 0.063123174012 0.58471924067
-0.01084856689 0.056797515601 0.58083117008
-0.012186366133 0.063920088112 0.58364659548
-0.010800801218 0.057038363069 0.57731425762
-0.013115224428 0.061988711357 0.57953369617
-0.010636149906 0.055836968124 0.57439696789
-0.010633509606 0.054808817804 0.57279253006
-0.010256363079 0.05398446694 0.57058829069
-0.0089270649478 0.053463406861 0.56836849451
-0.010948343202 0.063896529377 0.57745313644
-0.013399513438 0.052688136697 0.56080526114
-0.011089628562 0.066856905818 0.57697415352
-0.01305346936 0.052188009024 0.55780363083
-0.013667191379 0.055335976183 0.56208741665
-0.012321314774 0.050290178508 0.55399554968
-0.012125040404 0.053758367896 0.55796849728
-0.013632211834 0.049635451287 0.54857081175
-0.012217442505 0.05202363804 0.55350840092
-0.013811299577 0.060218468308 0.56138414145
-0.013952968642 0.052433930337 0.552688241
-0.015289641917 0.049058482051 0.53939735889
-0.013984175399 0.05007218942 0.54555088282
