-0.061290469021 0.15062895417 0.5986661911
-0.049964893609 0.14142403007 0.58962601423
-0.05996337533 0.15503813326 0.60221797228
-0.045643281192 0.14560061693 0.58655941486
-0.05019396916 0.13898183405 0.58996737003
-0.044861216098 0.14340604842 0.58257615566
-0.048112291843 0.14239990711 0.5883654356
-0.046969119459 0.14571735263 0.58263027668
-0.046826306731 0.14143247902 0.58410781622
-0.041079182178 0.14547389746 0.57061713934
-0.049252148718 0.14723984897 0.58463919163
-0.039902105927 0.1457658112 0.56610274315
-0.038142427802 0.14738339186 0.56216454506
-0.038770452142 0.14937199652 0.5642837882
-0.041276756674 0.14218708873 0.56878119707
-0.038124680519 0.14513805509 0.56080448627
-0.039416857064 0.14197979867 0.56286543608
-0.035830426961 0.14676980674 0.55239421129
-0.035300925374 0.14688642323 0.54487532377
-0.054352570325 0.14789570868 0.60871291161
-0.053285144269 0.15101848543 0.60338485241
-0.054887033999 0.1485837698 0.60201817751
-0.048843171448 0.14429955184 0.59706282616
-0.053189661354 0.14567425847 0.59723502398
-0.046309981495 0.14481507242 0.59141242504
-0.045625254512 0.142208606 0.58893281221
-0.048718743026 0.14272962511 0.59383833408
-0.054115887731 0.15409590304 0.59489423037
-0.046927753836 0.14131705463 0.5886118412
-0.049682363868 0.14650546014 0.58691114187
-0.043345849961 0.14425042272 0.58258146048
-0.042863342911 0.14456947148 0.57900893688
-0.049403365701 0.148792997 0.584608078
-0.043330144137 0.14337411523 0.57860976458
-0.041407570243 0.14309988916 0.57473748922
-0.042599853128 0.14284174144 0.57437336445
-0.034743614495 0.15199671686 0.54302346706
-0.059809423983 0.15547920763 0.62164974213
-0.058912470937 0.15333928168 0.6212836504
-0.050866033882 0.1432813704 0.61136543751
-0.048917133361 0.14448769391 0.60932248831
-0.052248328924 0.14996227622 0.60981369019
-0.05132554099 0.14409442246 0.60202974081
-0.051970645785 0.14770661294 0.60274159908
-0.050554342568 0.1494141221 0.60341459513
-0.047927439213 0.14641004801 0.59599524736
-0.057640049607 0.15093925595 0.60243701935
-0.047279268503 0.14366407692 0.59293210506
-0.051719777286 0.14912644029 0.59465938807
-0.044885851443 0.14863869548 0.58777195215
-0.044194146991 0.14591746032 0.58375096321
-0.042227491736 0.14738428593 0.58146721125
-0.039564877748 0.14843781292 0.5755251646
-0.041078865528 0.14857800305 0.57473301888
-0.042584832758 0.1466884017 0.58087289333
-0.038467913866 0.1479549706 0.56794685125
-0.043160475791 0.14144103229 0.58004748821
-0.0376076065 0.14954607189 0.56462967396
-0.039548870176 0.1449123472 0.56863486767
-0.033881228417 0.15282097459 0.54897874594
-0.0520410873 0.14829392731 0.60962474346
-0.053378712386 0.14811709523 0.60901850462
-0.050594452769 0.14806671441 0.60320389271
-0.049297768623 0.15160425007 0.60075598955
-0.051866330206 0.1490945518 0.60254204273
-0.049596115947 0.15106402338 0.6021578908
-0.05384940654 0.15050472319 0.59766566753
-0.051437895745 0.14958144724 0.5979090333
-0.044468946755 0.14754098654 0.5887491107
-0.044843956828 0.14345726371 0.59141993523
-0.042722828686 0.14603178203 0.58524364233
-0.046187378466 0.14167496562 0.59187406301
-0.048732053488 0.14643357694 0.59309762716
-0.045787807554 0.14155851305 0.58698266745
-0.041102286428 0.14551030099 0.58001285791
-0.041152384132 0.14431574941 0.57727748156
-0.037382483482 0.14904336631 0.56770449877
-0.037418600172 0.14704819024 0.56577533484
-0.055869381875 0.17037925124 0.6308311224
-0.048883348703 0.14368616045 0.61366587877
-0.047811247408 0.14277711511 0.61067306995
-0.048646669835 0.14165589213 0.61002224684
-0.050389807671 0.14967662096 0.61169421673
-0.04702604562 0.14445385337 0.60443753004
-0.053277891129 0.15287849307 0.61271727085
-0.048908766359 0.14755870402 0.60268872976
-0.044777341187 0.14873193204 0.59794008732
-0.058409471065 0.15547636151 0.60860270262
-0.048122219741 0.14809621871 0.59950584173
-0.045667450875 0.14853605628 0.59775102139
-0.044285867363 0.14374060929 0.59281623363
-0.042074788362 0.14587633312 0.58772188425
-0.046032968909 0.14784105122 0.59187197685
-0.041375745088 0.14655180275 0.58426392078
-0.042739599943 0.14561991394 0.58429718018
-0.041586495936 0.145205006 0.58203810453
-0.048396702856 0.14873817563 0.60825014114
-0.048301313072 0.15066458285 0.60875993967
-0.047231405973 0.14445707202 0.60342973471
-0.044624738395 0.14782181382 0.60087281466
-0.043126866221 0.14808759093 0.59601080418
-0.045264627784 0.15050205588 0.59529495239
-0.047174584121 0.14369226992 0.59512114525
-0.050042819232 0.14994995296 0.59510594606
-0.039953734726 0.15000531077 0.5848043561
-0.04048185423 0.15003077686 0.58355420828
-0.037113137543 0.1496694088 0.57639628649
-0.03744225204 0.14873026311 0.5738093257
-0.053673751652 0.15260118246 0.62186437845
-0.053898725659 0.15560719371 0.62442111969
-0.048189219087 0.14750164747 0.6168294549
-0.044541571289 0.1445287466 0.60884827375
-0.046586755663 0.14746239781 0.61011350155
-0.050675153732 0.15032948554 0.6084549427
-0.044369138777 0.15016004443 0.60435324907
-0.045939318836 0.15013095737 0.60319006443
-0.043742295355 0.1465857476 0.59926366806
-0.054826147854 0.15357419848 0.60508686304
-0.060067482293 0.15774695575 0.60759419203
-0.045899540186 0.1428912729 0.59731340408
-0.041264872998 0.14650081098 0.58991158009
-0.041506778449 0.14440563321 0.59172153473
-0.055301707238 0.1696100086 0.63411390781
-0.050999753177 0.156074211 0.6256275177
-0.050817262381 0.15377405286 0.62531816959
-0.04901728034 0.15047502518 0.62141209841
-0.047591749579 0.14862412214 0.61637037992
-0.044464930892 0.14402967691 0.61118423939
-0.049115277827 0.14963333309 0.61251008511
-0.045017704368 0.14829945564 0.60653603077
-0.049103632569 0.14905333519 0.60568958521
-0.049227386713 0.153122738 0.60546636581
-0.042694989592 0.1508744061 0.59669613838
-0.054907273501 0.15656909347 0.61042678356
-0.053401242942 0.15398305655 0.60566818714
-0.043766200542 0.14577323198 0.5981425643
-0.040754154325 0.14756828547 0.5933355689
-0.042487684637 0.14248970151 0.59748876095
-0.037116643041 0.15002559125 0.58587139845
-0.038088489324 0.14865666628 0.58523470163
-0.038694042712 0.14795958996 0.57760202885
-0.049963660538 0.15247307718 0.62389165163
-0.047114569694 0.15159980953 0.61959272623
-0.043855458498 0.15096145868 0.60516476631
-0.045106057078 0.14780750871 0.60435575247
-0.04345966503 0.14994931221 0.59935730696
-0.042132407427 0.150250718 0.59829592705
-0.041256278753 0.14772194624 0.5990794301
-0.038721218705 0.14839921892 0.59280616045
-0.039837438613 0.14678248763 0.59348386526
-0.039186485112 0.14947006106 0.58766388893
-0.036067236215 0.15354520082 0.57495826483
-0.056913685054 0.16838404536 0.63466656208
-0.055656868964 0.16727177799 0.63472664356
-0.051249165088 0.16378203034 0.63279998302
-0.047506082803 0.15413479507 0.62685477734
-0.050568211824 0.15478393435 0.62572419643
-0.044226046652 0.14753311872 0.61516982317
-0.044473689049 0.14973661304 0.60742348433
-0.051569957286 0.1532214433 0.61331266165
-0.053244058043 0.15550726652 0.61332643032
-0.05106594041 0.15232466161 0.60966849327
-0.049118705094 0.15079684556 0.60716712475
-0.038300424814 0.15164278448 0.59112787247
-0.038781497627 0.14809036255 0.59416246414
-0.035988833755 0.15233838558 0.58574187756
-0.035074971616 0.15462072194 0.58033758402
-0.055875618011 0.16860029101 0.63616472483
-0.05446016416 0.16765236855 0.63510334492
-0.053221054375 0.16658289731 0.63299530745
-0.045071329921 0.15093587339 0.6204238534
-0.043119423091 0.14870359004 0.6142141819
-0.048672772944 0.15298344195 0.61330807209
-0.045480683446 0.15288902819 0.60919290781
-0.039754919708 0.15040740371 0.60135036707
-0.045438788831 0.15327751637 0.59985971451
-0.037631943822 0.15211808681 0.59465610981
-0.038479138166 0.1497451365 0.59546983242
-0.037068150938 0.15295360982 0.59155201912
-0.036199517548 0.15481467545 0.58870726824
-0.035043209791 0.15515074134 0.58709698915
-0.036490168422 0.15744881332 0.58483272791
-0.035256158561 0.15619702637 0.58558815718
-0.035996824503 0.15551897883 0.58313727379
-0.055729269981 0.17195464671 0.63895124197
-0.057052444667 0.1701310724 0.63764953613
-0.054246146232 0.17040416598 0.63181328773
-0.045106671751 0.15548369288 0.62704759836
-0.04674724862 0.15416358411 0.62532240152
-0.043769624084 0.15223702788 0.62170147896
-0.044174302369 0.15012176335 0.61949783564
-0.046813175082 0.152840361 0.62038129568
-0.047904647887 0.15549692512 0.61540663242
-0.044977325946 0.14793246984 0.61174315214
-0.046680748463 0.15258067846 0.61147260666
-0.040868397802 0.15169465542 0.60469526052
-0.038433928043 0.1513645649 0.60017770529
-0.049561716616 0.15884789824 0.6035567522
-0.037307836115 0.15520213544 0.59283512831
-0.055649053305 0.17230537534 0.64054906368
-0.056540023535 0.17092527449 0.63926661015
-0.052786070853 0.1701092124 0.63369309902
-0.055059943348 0.16877643764 0.63755518198
-0.051578696817 0.16571618617 0.63602346182
-0.052521832287 0.16490198672 0.63457876444
-0.047974508256 0.15772880614 0.63064855337
-0.047374468297 0.16074287891 0.62873345613
-0.04697412625 0.15559798479 0.62884175777
-0.043440613896 0.15534821153 0.62546229362
-0.043728582561 0.15395274758 0.62378501892
-0.045764457434 0.15520524979 0.61625051498
-0.047251451761 0.15385840833 0.61431121826
-0.039903692901 0.15075518191 0.6073704958
-0.045028377324 0.15223911405 0.60764884949
-0.048631627113 0.15210089087 0.61166715622
-0.043944142759 0.1546471715 0.60514050722
-0.046030353755 0.15855266154 0.60678470135
-0.047838192433 0.15721583366 0.60688281059
-0.0410717614 0.15790167451 0.59992676973
-0.039445128292 0.15915520489 0.59467792511
-0.054764647037 0.17282885313 0.6379108429
-0.053511254489 0.16848157346 0.63879412413
-0.052977848798 0.16607901454 0.63621598482
-0.046072755009 0.15738971531 0.62930619717
-0.040689602494 0.1544406563 0.62179887295
-0.042332891375 0.15257069468 0.61360621452
-0.038504756987 0.15434326231 0.6037800312
-0.053251024336 0.17192655802 0.63963806629
-0.054674632847 0.1707508266 0.64133703709
-0.052342385054 0.16981801391 0.64094173908
-0.053798861802 0.1694123596 0.64050376415
-0.051426529884 0.1666854769 0.63785177469
-0.050408914685 0.16488803923 0.63722401857
-0.049776673317 0.16340391338 0.63611221313
-0.048625662923 0.16176977754 0.6339558363
-0.046673208475 0.16008777916 0.63395762444
-0.048845995218 0.16150301695 0.6326610446
-0.04775192216 0.16100007296 0.63259649277
-0.041836310178 0.15475864708 0.62663501501
-0.044172819704 0.15622535348 0.61491906643
-0.044989176095 0.15731033683 0.61483955383
-0.041021447629 0.15511696041 0.61036431789
-0.042233239859 0.15587759018 0.60920375586
-0.048505794257 0.15727445483 0.61269503832
-0.039766050875 0.1598739326 0.60265886784
-0.053975515068 0.17168022692 0.6433198452
-0.050355672836 0.16985344887 0.63902390003
-0.047544892877 0.16521191597 0.63749939203
-0.044428180903 0.15869908035 0.63089454174
-0.045183308423 0.15789097548 0.61885476112
-0.046873502433 0.1576307267 0.61460667849
-0.039349202067 0.1595120579 0.60433775187
-0.05518335849 0.1725204438 0.64300644398
-0.051202308387 0.16976289451 0.64443534613
-0.050545856357 0.16858023405 0.64263004065
-0.048654533923 0.16728638113 0.63634443283
-0.046457588673 0.16617576778 0.63752818108
-0.049295637757 0.16667628288 0.63996660709
-0.049640957266 0.16589507461 0.63927447796
-0.048700667918 0.16436156631 0.6380494833
-0.046229496598 0.16191728413 0.6365442872
-0.04419805482 0.1639533937 0.63269168139
-0.046417169273 0.16096371412 0.63484603167
-0.045678112656 0.15962286294 0.63382399082
-0.042949356139 0.15789456666 0.63184148073
-0.044523328543 0.15774817765 0.63226109743
-0.042292330414 0.15232039988 0.61963993311
-0.042192909867 0.15939675272 0.61565673351
-0.041704826057 0.16141921282 0.6074693203
-0.055123832077 0.17421340942 0.64588326216
-0.054471228272 0.17416884005 0.65040630102
-0.052933447063 0.17296655476 0.64818745852
-0.05337741226 0.17211081088 0.64678394794
-0.049886818975 0.17003920674 0.64033931494
-0.048544678837 0.16911818087 0.64436089993
-0.051451146603 0.16876977682 0.63663864136
-0.04975791648 0.16722269356 0.64098143578
-0.044407069683 0.16120494902 0.63530373573
-0.041465610266 0.15581937134 0.62960451841
-0.042766075581 0.15862843394 0.62864786386
-0.041956011206 0.1561242491 0.62208414078
-0.040630605072 0.15419088304 0.62028300762
-0.040969960392 0.15836855769 0.61345243454
-0.040633544326 0.15863668919 0.61161333323
-0.051952563226 0.17438295484 0.65121078491
-0.053726069629 0.17557381094 0.64584767818
-0.047345835716 0.16923826933 0.6471632123
-0.051008284092 0.1689607352 0.63923478127
-0.047384973615 0.16640537977 0.63766080141
-0.047429602593 0.16506229341 0.63935911655
-0.04433510825 0.16291230917 0.63378667831
-0.045045200735 0.16236503422 0.6374271512
-0.042870149016 0.15940316021 0.63461887836
-0.043598689139 0.15998832881 0.63492286205
-0.041688978672 0.15807822347 0.63284605742
-0.041933845729 0.15870147943 0.62081962824
-0.041818939149 0.15961609781 0.61886352301
-0.0395854339 0.16027824581 0.61270445585
-0.04222593829 0.16026842594 0.61314213276
-0.051332708448 0.17342442274 0.6509885788
-0.054252054542 0.17385572195 0.6435572505
-0.051802840084 0.17072959244 0.64184075594
-0.050903774798 0.17098775506 0.64798939228
-0.046582721174 0.16741134226 0.63428485394
-0.039997626096 0.16056205332 0.63437688351
-0.038448255509 0.15650941432 0.62855452299
-0.037792865187 0.15943028033 0.61599761248
-0.051442876458 0.17310132086 0.64985960722
-0.049308627844 0.17287832499 0.65111553669
-0.047987565398 0.16617058218 0.64237487316
-0.04796436429 0.16793459654 0.64555424452
-0.045909188688 0.16756998003 0.64528805017
-0.043194334954 0.1656665653 0.64427518845
-0.04159328714 0.16307236254 0.63898575306
-0.041720952839 0.1611443907 0.63568592072
-0.041085094213 0.15963403881 0.63546878099
-0.039974916726 0.15882734954 0.63373917341
-0.042630467564 0.15869320929 0.62507081032
-0.049160145223 0.17491677403 0.65548717976
-0.046432800591 0.16971477866 0.64911437035
-0.039831582457 0.16195067763 0.63976883888
-0.042220305651 0.16301624477 0.64131355286
-0.0384997949 0.16019749641 0.63088721037
-0.041150782257 0.16066534817 0.63073313236
-0.051958583295 0.17699186504 0.65087109804
-0.047312393785 0.17459726334 0.6492062211
-0.049427554011 0.17154800892 0.65042048693
-0.047119364142 0.17219947278 0.65368443727
-0.044667501003 0.16976371408 0.6505125165
-0.046938408166 0.16828908026 0.64722663164
-0.041862573475 0.16455687582 0.64063477516
-0.04306486249 0.1651699841 0.64564365149
-0.041098449379 0.164270401 0.64395874739
-0.041354887187 0.1619116962 0.63979357481
-0.039844397455 0.16058808565 0.63612908125
-0.038430895656 0.16034816206 0.63869786263
-0.038684152067 0.15906615555 0.63237327337
-0.037131171674 0.15832990408 0.62885153294
-0.03816370666 0.15853558481 0.62789738178
-0.042008068413 0.16133700311 0.62213504314
-0.046976558864 0.17378008366 0.6496245265
-0.049086112529 0.17425180972 0.65398621559
-0.047354675829 0.17379589379 0.65640562773
-0.042263504118 0.16972713172 0.64996725321
-0.039618585259 0.16311021149 0.63796061277
-0.039991419762 0.16219440103 0.64085441828
-0.051084537059 0.17513693869 0.6494666934
-0.047989308834 0.17349229753 0.65033936501
-0.046181507409 0.17357514799 0.65464305878
-0.044575609267 0.16534999013 0.64416021109
-0.038579776883 0.16645410657 0.64684915543
-0.040768608451 0.16477246583 0.64692920446
-0.03767497465 0.16330759227 0.64535754919
-0.035853438079 0.16155108809 0.63918977976
-0.037928301841 0.16089601815 0.64079457521
-0.036008719355 0.16013050079 0.63870030642
-0.037287365645 0.15916128457 0.6383844018
-0.037697929889 0.15971770883 0.63489019871
-0.05040731281 0.1737934649 0.65277457237
-0.045417167246 0.1731043309 0.65302741528
-0.045993730426 0.17180176079 0.65188533068
-0.044550716877 0.16605399549 0.64542454481
-0.044642992318 0.16873028874 0.65019631386
-0.042455907911 0.16996258497 0.65020531416
-0.040947202593 0.1694881022 0.65410089493
-0.037961699069 0.16456703842 0.64655196667
-0.047252390534 0.17280727625 0.65337890387
-0.043148316443 0.17035081983 0.65066164732
-0.041497007012 0.16880968213 0.64934039116
-0.041755143553 0.16883212328 0.65216124058
-0.03963752836 0.16140346229 0.63897824287
-0.039406493306 0.1656319499 0.64717304707
-0.038168165833 0.16494598985 0.64914953709
-0.037914685905 0.16177810729 0.63879054785
-0.038366250694 0.16213849187 0.64324373007
-0.032943267375 0.1608210206 0.64428848028
-0.036303777248 0.16137215495 0.6430516839
-0.03704828769 0.15957964957 0.63653004169
-0.037376880646 0.15995776653 0.63946270943
-0.049695633352 0.17392092943 0.65102803707
-0.048424646258 0.17344450951 0.65115094185
-0.046148914844 0.17495968938 0.65337216854
-0.043298248202 0.17368675768 0.65924477577
-0.040634881705 0.16992391646 0.65223479271
-0.038266312331 0.17022265494 0.65371757746
-0.034567624331 0.16481415927 0.64862751961
-0.034384723753 0.1601396203 0.64266806841
-0.049853805453 0.17478327453 0.65050536394
-0.04815480113 0.17426098883 0.65385091305
-0.045317657292 0.1742888689 0.65341728926
-0.046963877976 0.17054486275 0.65074896812
-0.048401929438 0.17305110395 0.64869660139
-0.037815127522 0.17051702738 0.65217989683
-0.039915367961 0.16865262389 0.65324270725
-0.037634909153 0.16735877097 0.65401387215
-0.035351831466 0.16642202437 0.6499723196
-0.035440582782 0.16503380239 0.64839744568
-0.034988868982 0.16347260773 0.64830034971
-0.032483372837 0.16287980974 0.64921712875
-0.03659042716 0.16251847148 0.64575654268
-0.034148875624 0.16194055974 0.63843697309
-0.032603453845 0.16220521927 0.63734197617
-0.035736367106 0.15960673988 0.64149218798
-0.052604246885 0.17540979385 0.65049129725
-0.049562327564 0.17486733198 0.64769101143
-0.044640820473 0.17030665278 0.65183246136
-0.042810682207 0.16846431792 0.65132600069
-0.039455335587 0.17068716884 0.65211135149
-0.038020163774 0.16896013916 0.65372502804
-0.034625273198 0.16730558872 0.6508128643
-0.037260506302 0.16533379257 0.64980572462
-0.033501833677 0.1633092165 0.64820218086
-0.034715592861 0.16243059933 0.64745271206
-0.034557234496 0.16073045135 0.63922256231
-0.035275779665 0.16184128821 0.64262926579
-0.047332696617 0.17183043063 0.65150910616
-0.038835026324 0.17004719377 0.65350580215
-0.037502154708 0.17004442215 0.65357333422
-0.035407967865 0.16626191139 0.64807122946
-0.034838628024 0.16455423832 0.64961946011
-0.035213388503 0.16214451194 0.64348036051
-0.033588353544 0.16226740181 0.64340734482
-0.030630812049 0.16188216209 0.64378148317
-0.032261706889 0.16121356189 0.63857346773
-0.04748557508 0.17556534708 0.65359884501
-0.040527392179 0.16971118748 0.64955687523
-0.039623308927 0.17009629309 0.65424817801
-0.033783677965 0.16601552069 0.65181255341
-0.034527674317 0.16609691083 0.64917361736
-0.035402819514 0.1651340574 0.65112894773
-0.038499034941 0.17058968544 0.6522244215
-0.041010797024 0.17062300444 0.65400785208
-0.036261927336 0.16758483648 0.65250182152
-0.035688981414 0.16644699872 0.65224659443
-0.036080352962 0.16852104664 0.65546268225
-0.032852083445 0.16215698421 0.64506709576
-0.033927779645 0.16375285387 0.64952856302
-0.031658727676 0.1627048701 0.64894294739
-0.036535527557 0.16435874999 0.64890247583
-0.03343514353 0.161635831 0.63790696859
-0.042823724449 0.17076835036 0.65357190371
-0.032197911292 0.16757549345 0.65443426371
-0.038492493331 0.17014609277 0.6547114253
-0.036644998938 0.17027746141 0.65385955572
-0.034048646688 0.16781201959 0.65493381023
-0.031841374934 0.16754038632 0.65277278423
-0.035657186061 0.16717725992 0.65419656038
-0.034106571227 0.16655775905 0.65353417397
-0.030108679086 0.16687597334 0.64863038063
-0.030209507793 0.16807600856 0.64811307192
-0.029928466305 0.16771173477 0.64655196667
-0.034502401948 0.16568776965 0.65112793446
-0.031144868582 0.1688978076 0.65218174458
-0.032063316554 0.16643671691 0.65137165785
-0.030949110165 0.16716422141 0.64903920889
-0.03288597241 0.16370260715 0.645581007
-0.036296885461 0.17198434472 0.65253728628
-0.030832139775 0.1651853025 0.65042626858
-0.029797004536 0.16709758341 0.64865142107
-0.031775977463 0.16362150013 0.6429476738
-0.03573204577 0.16769726574 0.65019208193
-0.031315829605 0.16594827175 0.65126490593
-0.029572032392 0.16758315265 0.64783328772
-0.029882732779 0.16666264832 0.64683300257
-0.032734360546 0.16698239744 0.64975661039
-0.039675693959 0.1653957665 0.64491647482
-0.030857736245 0.16835772991 0.64672923088
-0.031077817082 0.16173128784 0.64083909988
-0.031670816243 0.16638979316 0.65435761213
-0.030540751293 0.16705997288 0.64723676443
-0.031280260533 0.16737271845 0.64696729183
-0.075662709773 0.18401791155 0.62943154573
-0.033615022898 0.15073981881 0.5493645072
-0.10092575848 0.07795471698 0.51219916344
-0.10061277449 0.075859591365 0.51105564833
-0.09928779304 0.077060028911 0.51216721535
-0.097657077014 0.075200438499 0.51100516319
-0.094041019678 0.079246990383 0.51301950216
-0.090983740985 0.080178946257 0.51251417398
-0.089287653565 0.083212204278 0.513276577
-0.071269273758 0.10131100565 0.51806682348
-0.063286826015 0.1079512164 0.50872206688
-0.041891310364 0.14941345155 0.61395394802
-0.047670248896 0.15535378456 0.6210898757
-0.1066467613 0.081102736294 0.51885443926
-0.098563618958 0.079143196344 0.51427716017
-0.083522848785 0.090125240386 0.51556122303
-0.071041166782 0.10096903145 0.5158328414
-0.068096838892 0.10422668606 0.51317596436
-0.054659042507 0.11848620325 0.50862389803
-0.062956936657 0.11000326276 0.5100902915
-0.060056921095 0.11235453933 0.51011919975
-0.044913206249 0.14735624194 0.61416757107
-0.08719586581 0.085771858692 0.51312351227
-0.074600547552 0.097351245582 0.52034151554
-0.066428117454 0.1086686179 0.5147947073
-0.045705143362 0.1495757252 0.61394137144
-0.095718793571 0.080837957561 0.51566052437
-0.080638818443 0.094790227711 0.51708364487
-0.078520290554 0.093814149499 0.51498955488
-0.077571257949 0.095560155809 0.51560735703
-0.035971838981 0.14699965715 0.55609858036
-0.046327009797 0.23337714374 0.51207756996
-0.04623740539 0.15753214061 0.6218495369
-0.08133032918 0.092821784317 0.51464474201
-0.078331232071 0.095798142254 0.51988899708
-0.074547111988 0.099475309253 0.51664811373
-0.06640714407 0.10690283775 0.51283049583
-0.059587422758 0.11527388543 0.51101601124
-0.086126990616 0.09070250392 0.51447159052
-0.072456516325 0.10153012723 0.51747655869
-0.038222145289 0.15751923621 0.62287610769
-0.09757347405 0.078743487597 0.51274222136
-0.093746714294 0.082993775606 0.51401346922
-0.09110019356 0.086772657931 0.51504480839
-0.097412124276 0.080400064588 0.51427221298
-0.087066300213 0.088379569352 0.5135872364
-0.079205930233 0.097159445286 0.51783370972
-0.077018231153 0.099324904382 0.51648592949
-0.071059241891 0.10478015989 0.5191347003
-0.064451657236 0.1112754643 0.51627099514
-0.08300050348 0.093460842967 0.51501989365
-0.054973170161 0.12107228488 0.50897622108
-0.052643381059 0.12267993391 0.50910323858
-0.054421573877 0.22932763398 0.51083123684
-0.067719250917 0.10684897751 0.51472568512
-0.051155030727 0.22986783087 0.5108140707
-0.093246869743 0.084090262651 0.51507049799
-0.10207754374 0.076684035361 0.51068007946
-0.085221558809 0.091687232256 0.52287018299
-0.0753730461 0.1009728387 0.51954507828
-0.096910849214 0.083067163825 0.51520031691
-0.082232147455 0.094547472894 0.51817941666
-0.06740539521 0.11264438927 0.51945537329
-0.039493057877 0.15557946265 0.62585872412
-0.059164889157 0.13997094333 0.60228097439
-0.048906449229 0.12607689202 0.50996482372
-0.085174106061 0.091949470341 0.51167732477
-0.049910828471 0.12347048521 0.50894623995
-0.042457971722 0.14929881692 0.61245256662
-0.060533978045 0.22378346324 0.51056796312
-0.058666341007 0.2277803719 0.51066142321
-0.047079801559 0.12755259871 0.50891208649
-0.086539171636 0.091855123639 0.52192562819
-0.051190871745 0.12351956964 0.51107174158
-0.163260445 0.12409342825 0.50813394785
-0.051040124148 0.15895049274 0.61173784733
-0.038568604738 0.15380495787 0.57958501577
-0.051897715777 0.15418069065 0.60132080317
-0.049791373312 0.15820175409 0.60974860191
-0.052046466619 0.15955038369 0.60385996103
-0.045004572719 0.15968127549 0.60339844227
-0.049257956445 0.16225810349 0.59354275465
-0.037555098534 0.16012936831 0.5676830411
-0.043708190322 0.15039856732 0.59030139446
-0.04774421826 0.15611469746 0.59028989077
-0.047560524195 0.16196799278 0.59767687321
-0.043576642871 0.15735591948 0.5852766037
-0.039198540151 0.16242769361 0.55819010735
-0.035272561014 0.15484265983 0.56776964664
-0.038365162909 0.15508548915 0.54624611139
-0.039198547602 0.16149222851 0.54197001457
-0.036782667041 0.15835145116 0.53667598963
-0.038844179362 0.15705376863 0.54906243086
-0.040796950459 0.16174705327 0.54904520512
-0.036884877831 0.15939344466 0.53570145369
-0.038533627987 0.1632719487 0.52478522062
-0.038784418255 0.16273930669 0.54487085342
-0.038262423128 0.15834514797 0.54088515043
-0.038638453931 0.16327349842 0.54739844799
-0.039414588362 0.16135723889 0.53453630209
-0.062254142016 0.1806319654 0.51280516386
-0.045901644975 0.16716627777 0.52439206839
-0.052767772228 0.17329627275 0.51920384169
-0.068595550954 0.1915730983 0.5099966526
-0.079630732536 0.20185770094 0.50987428427
-0.067628793418 0.18091115355 0.54254192114
-0.084311574697 0.20726110041 0.50995826721
-0.037616841495 0.15829019248 0.52953839302
-0.0412247926 0.16058197618 0.53152960539
-0.06724909693 0.18237343431 0.51360577345
-0.06861564517 0.18716606498 0.51197212934
-0.066165566444 0.18710647523 0.51060801744
-0.041339222342 0.16756676137 0.56884461641
-0.038469098508 0.16217429936 0.572671175
-0.039170306176 0.16714391112 0.5646071434
-0.075752958655 0.19491395354 0.5123577714
-0.092982649803 0.2025578171 0.51005172729
-0.058611646295 0.1563012749 0.6118952632
-0.080679573119 0.21361629665 0.51020926237
-0.070255145431 0.21366259456 0.51025885344
-0.039739906788 0.15492221713 0.54296594858
-0.038734614849 0.16206848621 0.5338704586
-0.040792409331 0.15897715092 0.53673362732
-0.040579672903 0.15928499401 0.54264473915
-0.060706995428 0.18281544745 0.51016426086
-0.065884694457 0.18148885667 0.51640820503
-0.067661516368 0.18579509854 0.51841270924
-0.069571264088 0.18636776507 0.51468485594
-0.072615914047 0.19001600146 0.51375466585
-0.072411216795 0.19047650695 0.51207846403
-0.053172513843 0.16193138063 0.59703886509
-0.067133426666 0.22293184698 0.51045870781
-0.061904802918 0.22113445401 0.5107421279
-0.067675150931 0.22589185834 0.51074492931
-0.063513360918 0.22934234142 0.51098483801
-0.038625676185 0.1567516923 0.55258113146
-0.037120483816 0.15937924385 0.53201520443
-0.057189952582 0.17597059906 0.51440006495
-0.065079800785 0.18028585613 0.51929706335
-0.045969914645 0.16308692098 0.58284300566
-0.082120940089 0.19622457027 0.51044434309
-0.07924734056 0.19630499184 0.50992101431
-0.056119125336 0.23122353852 0.51161718369
-0.038144499063 0.15789872408 0.55654579401
-0.037328056991 0.15921735764 0.53547555208
-0.05581850186 0.17655515671 0.51778763533
-0.081212669611 0.19473293424 0.50998514891
-0.064755871892 0.18565002084 0.55438905954
-0.038514550775 0.15232948959 0.53951710463
-0.035741534084 0.15319885314 0.54669988155
-0.038354735821 0.15749646723 0.52110552788
-0.047704413533 0.16461317241 0.51614373922
-0.042194969952 0.16429075599 0.52294188738
-0.051425158978 0.17040075362 0.51592504978
-0.065038211644 0.18211494386 0.51361066103
-0.055648040026 0.17548117042 0.51199948788
-0.05358459428 0.1730196774 0.51003426313
-0.038451742381 0.15867824852 0.53307729959
-0.039219863713 0.15653431416 0.54638522863
-0.037419926375 0.15803827345 0.53939151764
-0.038959715515 0.15788093209 0.54487550259
-0.03806508705 0.15644165874 0.52003055811
-0.039446379989 0.16108523309 0.52228999138
-0.057691026479 0.17829175293 0.51050978899
-0.068522363901 0.18430776894 0.52843332291
-0.037831161171 0.15674628317 0.5342348218
-0.041734404862 0.16155688465 0.52192729712
-0.046484149992 0.16580837965 0.51777178049
-0.052118103951 0.17126858234 0.51376968622
-0.061151780188 0.18035930395 0.5107139945
-0.038643278182 0.15871791542 0.54128628969
-0.071611583233 0.18803551793 0.51313197613
-0.038955014199 0.15201945603 0.53615421057
-0.065541669726 0.18000207841 0.53668326139
-0.065180145204 0.18066348135 0.53422224522
-0.069533623755 0.18479830027 0.53595888615
-0.071392469108 0.18467442691 0.5338472724
-0.067818194628 0.186160326 0.52201753855
-0.072260059416 0.18892501295 0.52370721102
-0.096774280071 0.19549229741 0.51195043325
-0.087139107287 0.19372206926 0.51288425922
-0.0421625413 0.16621434689 0.55556923151
-0.051868356764 0.17288398743 0.52173221111
-0.050780635327 0.17171780765 0.519115448
-0.071336835623 0.18131557107 0.56237918139
-0.072604365647 0.18163086474 0.55317294598
-0.067563340068 0.18277658522 0.55240166187
-0.065447993577 0.18354396522 0.54431760311
-0.068779237568 0.18289172649 0.52707511187
-0.065550610423 0.18382260203 0.54323941469
-0.063964746892 0.18558725715 0.5393397212
-0.064080633223 0.18469166756 0.53485393524
-0.065702922642 0.18610644341 0.53469306231
-0.066648952663 0.18702821434 0.52889841795
-0.083508148789 0.19774967432 0.50986266136
-0.089711993933 0.19663274288 0.51173210144
-0.038444928825 0.15445721149 0.55435150862
-0.066971167922 0.18180564046 0.56211364269
-0.064944073558 0.18354137242 0.55773681402
-0.067171946168 0.18295034766 0.55546706915
-0.071445308626 0.1838246882 0.54710012674
-0.070810362697 0.18765030801 0.52459973097
-0.069667048752 0.1856290102 0.55208528042
-0.035740207881 0.15449510515 0.54664087296
-0.035850547254 0.15714888275 0.56374365091
-0.037049699575 0.1596891433 0.53209656477
-0.037659663707 0.15995959938 0.52968734503
-0.037929311395 0.15812844038 0.52798634768
-0.051084283739 0.16982255876 0.51328796148
-0.049129452556 0.16307881474 0.59076863527
-0.042399935424 0.16872224212 0.57418715954
-0.065809778869 0.18451595306 0.56270617247
-0.070365540683 0.18645372987 0.56196546555
-0.067367807031 0.18784123659 0.55678921938
-0.068292871118 0.18811613321 0.55733442307
-0.070251487195 0.18737195432 0.55750793219
-0.067941598594 0.18765285611 0.54016423225
-0.034284833819 0.15191233158 0.51155281067
-0.043366607279 0.16161595285 0.51908153296
-0.068786151707 0.18441073596 0.52060651779
-0.036595273763 0.14775933325 0.53903764486
-0.036938451231 0.15518833697 0.53870564699
-0.040112704039 0.15813547373 0.52490127087
-0.035248726606 0.15890260041 0.51021575928
-0.036866124719 0.15090821683 0.53399753571
-0.04139373824 0.16650089622 0.56135112047
-0.068430051208 0.18340247869 0.53914630413
-0.036923132837 0.15393765271 0.53325241804
-0.038051728159 0.15601590276 0.53357338905
-0.041719608009 0.15709801018 0.5214125514
-0.047845289111 0.15765354037 0.51103937626
-0.048547942191 0.16524364054 0.51158440113
-0.042158480734 0.16133584082 0.5097284317
-0.036644719541 0.15334779024 0.53181409836
-0.038569159806 0.15436565876 0.54989230633
-0.039345744997 0.1566247493 0.54241812229
-0.038514066488 0.15408329666 0.52452778816
-0.037661459297 0.15794356167 0.52473402023
-0.037637010217 0.15643087029 0.52743911743
-0.064106144011 0.18049290776 0.52308398485
-0.035831864923 0.14910775423 0.5328655839
-0.038556195796 0.15043033659 0.52324026823
-0.040916480124 0.15111927688 0.52232301235
-0.036838121712 0.15211333334 0.52908563614
-0.03674864769 0.14554211497 0.53271871805
-0.046063229442 0.15643060207 0.51635348797
-0.048950023949 0.15643125772 0.51350516081
-0.042114745826 0.1655511409 0.5726647377
-0.035724963993 0.14770023525 0.53004938364
-0.037496905774 0.14573003352 0.5286616683
-0.036964163184 0.15251739323 0.53038454056
-0.038587775081 0.15626348555 0.5526586175
-0.036437336355 0.153887555 0.53384381533
-0.049099244177 0.15380242467 0.59475183487
-0.054219406098 0.15222725272 0.59857046604
-0.044579472393 0.15070751309 0.59188061953
-0.04723065719 0.16389228404 0.50970697403
-0.041656337678 0.16162660718 0.56894636154
-0.040836233646 0.16565644741 0.55982846022
-0.068719759583 0.18831975758 0.51171827316
-0.045985441655 0.14647486806 0.52925270796
-0.037461161613 0.156674698 0.56093746424
-0.045680392534 0.15344232321 0.60314524174
-0.059003088623 0.15837496519 0.60539543629
-0.05661790818 0.15704491735 0.60012716055
-0.069592021406 0.18011516333 0.52168399096
-0.070036523044 0.18374957144 0.53118801117
-0.088325925171 0.19479432702 0.51109325886
-0.038555938751 0.14660055935 0.52291858196
-0.039106585085 0.14404986799 0.56520658731
-0.037530753762 0.14929628372 0.52881592512
-0.04358170554 0.14829915762 0.5134370923
-0.039674736559 0.15094968677 0.51066917181
-0.037928264588 0.15435241163 0.50969141722
-0.038906060159 0.14960606396 0.57695865631
-0.037457663566 0.15766438842 0.56293857098
-0.046089120209 0.15865406394 0.51203435659
-0.048898939043 0.15657031536 0.60116684437
-0.07409068197 0.18296071887 0.55450999737
-0.068033628166 0.18429963291 0.56764012575
-0.068008899689 0.1826967448 0.54818814993
-0.075357429683 0.1900510788 0.52139931917
-0.044537000358 0.14312468469 0.52046692371
-0.045275282115 0.1516161412 0.51269561052
-0.055150534958 0.16155587137 0.60773587227
-0.040474299341 0.13506782055 0.51043987274
-0.037470161915 0.14838635921 0.54882246256
-0.045968640596 0.15618987381 0.61076414585
-0.074933797121 0.17804853618 0.58938741684
-0.073226071894 0.18512672186 0.55206137896
-0.086580336094 0.18842758238 0.51170831919
-0.074901260436 0.17909377813 0.58635157347
-0.071922898293 0.17980012298 0.57720786333
-0.042853422463 0.15020138025 0.59194600582
-0.055887565017 0.16426952183 0.62040048838
-0.056578014046 0.16431730986 0.61898434162
-0.051595665514 0.15691334009 0.60830885172
-0.056227259338 0.1680251509 0.62213993073
-0.051504638046 0.16471388936 0.61596810818
-0.054522834718 0.16421250999 0.61232924461
-0.056227967143 0.16123813391 0.60456985235
-0.048589538783 0.15562838316 0.51166468859
-0.044978607446 0.16133399308 0.62439882755
-0.048036597669 0.16208393872 0.62516725063
-0.048342686146 0.16090247035 0.62390518188
-0.050113342702 0.16183380783 0.62359780073
-0.049567446113 0.15499669313 0.59028285742
-0.047481685877 0.16434368491 0.62505376339
-0.048667687923 0.16389138997 0.62322896719
-0.051195651293 0.16373281181 0.62294006348
-0.048691116273 0.16380406916 0.61926734447
-0.05392337963 0.16758261621 0.62475425005
-0.054608684033 0.16916711628 0.62070935965
-0.065481625497 0.18424455822 0.51126629114
-0.072366975248 0.18879683316 0.5187921524
-0.042985830456 0.14875589311 0.51224464178
-0.036858059466 0.149561584 0.5103533864
-0.042754687369 0.16078047454 0.63011664152
-0.041968382895 0.15953798592 0.62626099586
-0.046165753156 0.16217185557 0.62650579214
-0.061603218317 0.15813431144 0.61022764444
-0.0459427163 0.15276843309 0.59370446205
-0.045107211918 0.16345021129 0.62729126215
-0.041751720011 0.16276706755 0.6230031848
-0.053119149059 0.16581775248 0.62948024273
-0.045229595155 0.16558930278 0.62585395575
-0.045809496194 0.1644513756 0.62510496378
-0.047527842224 0.16672419012 0.62644660473
-0.050424456596 0.16701762378 0.62483304739
-0.053908854723 0.17077967525 0.62596476078
-0.054566930979 0.16978672147 0.6245970726
-0.068009003997 0.1837079227 0.53482866287
-0.067974366248 0.18489590287 0.51402980089
-0.072238497436 0.18398103118 0.61543673277
-0.048078987747 0.1503097266 0.60249525309
-0.046933043748 0.14963626862 0.59462869167
-0.046947550029 0.16426593065 0.63062292337
-0.043679207563 0.16505904496 0.62860417366
-0.040749099106 0.16006483138 0.61322110891
-0.052452370524 0.16200441122 0.62159848213
-0.04778591916 0.16529864073 0.63165378571
-0.046584315598 0.16551156342 0.63225466013
-0.04628592357 0.16707760096 0.62754273415
-0.053016372025 0.17084299028 0.63168209791
-0.053594809026 0.16861191392 0.62913995981
-0.048139143735 0.16965034604 0.62608343363
-0.051819946617 0.17146982253 0.62551283836
-0.0509076491 0.17328539491 0.62352406979
-0.062856815755 0.17729970813 0.52161681652
-0.067819029093 0.18565095961 0.55843883753
-0.072559826076 0.18734666705 0.6198913455
-0.070967249572 0.18503847718 0.61763000488
-0.086359769106 0.19170996547 0.51212209463
-0.08234783262 0.19313235581 0.51073551178
-0.049928124994 0.15966807306 0.62352561951
-0.073797062039 0.1868571043 0.62859910727
-0.07534750551 0.18747957051 0.62784582376
-0.07350115478 0.18593360484 0.62712943554
-0.071268923581 0.185509637 0.62452208996
-0.077228032053 0.19087032974 0.62864291668
-0.049992170185 0.16606506705 0.62827289104
-0.048446796834 0.1675516963 0.62425458431
-0.048744928092 0.16504500806 0.62604123354
-0.075136587024 0.18733920157 0.63510972261
-0.073124162853 0.18548542261 0.63318175077
-0.075995326042 0.18772770464 0.63185089827
-0.078796967864 0.19272747636 0.62783384323
-0.050145220011 0.1667727679 0.63082259893
-0.048901170492 0.16671770811 0.62894433737
-0.047463729978 0.16783583164 0.62676662207
-0.053823322058 0.16085708141 0.60428029299
-0.052096132189 0.16892674565 0.62592464685
-0.074881970882 0.19036658108 0.64055049419
-0.078092478216 0.187618047 0.63029980659
-0.077379770577 0.19119031727 0.63518953323
-0.078091673553 0.1838464886 0.62616878748
-0.040299713612 0.15355050564 0.63182461262
-0.05305954814 0.16835957766 0.62162584066
-0.050623290241 0.17044563591 0.52238994837
-0.071426957846 0.19678939879 0.65291857719
-0.074385181069 0.19071860611 0.64036935568
-0.069153659046 0.1970564723 0.65658926964
-0.070121474564 0.19781890512 0.65380442142
-0.071677394211 0.19478800893 0.6497554183
-0.076038837433 0.19182626903 0.63921153545
-0.07675473392 0.19073805213 0.63792854548
-0.070305988193 0.19895510375 0.65439385176
-0.074547797441 0.19319599867 0.64225447178
-0.074583701789 0.194674775 0.64096724987
-0.076536566019 0.19292318821 0.63727754354
-0.076904922724 0.19155955315 0.63230621815
-0.072862900794 0.19216166437 0.64263612032
-0.074383176863 0.19238431752 0.63820588589
-0.051832772791 0.17044332623 0.62384414673
-0.07046096772 0.19433091581 0.6532714963
-0.073633149266 0.18571479619 0.55464196205
-0.071613125503 0.19521956146 0.65234130621
-0.074098683894 0.18999478221 0.64313066006
-0.077370405197 0.18947248161 0.63377737999
-0.079270206392 0.18900810182 0.62940222025
-0.080158628523 0.19022469223 0.62888526917
-0.071928299963 0.19859866798 0.65172994137
-0.071996830404 0.19398920238 0.6487402916
-0.046574432403 0.15023742616 0.58735543489
-0.039770837873 0.15479043126 0.57588708401
-0.046861637384 0.15435159206 0.58708190918
-0.058462388813 0.15906840563 0.61285769939
-0.071372330189 0.19286072254 0.64965856075
-0.042018376291 0.16289560497 0.54491662979
-0.093734197319 0.19177526236 0.51177763939
-0.043426532298 0.1417530179 0.51242375374
-0.044762864709 0.16330181062 0.63146173954
-0.046153295785 0.15651646256 0.5121384263
-0.065228931606 0.18760712445 0.51027530432
-0.084894299507 0.18614169955 0.52112329006
-0.0755244717 0.18690741062 0.5498675704
-0.074731811881 0.18854431808 0.53209328651
-0.049208037555 0.16087952256 0.51264590025
-0.070175349712 0.18532264233 0.54359865189
-0.071569278836 0.18829661608 0.55166405439
-0.076013207436 0.18948844075 0.62320685387
-0.048535045236 0.14622546732 0.51313859224
-0.070417076349 0.18763947487 0.54345458746
-0.07821919024 0.19146317244 0.62421113253
-0.073820501566 0.17887617648 0.59494966269
-0.066611766815 0.18761925399 0.53180587292
-0.047710940242 0.15155877173 0.51194727421
-0.037103958428 0.14280115068 0.51151192188
-0.036432921886 0.14086033404 0.50921231508
-0.086964271963 0.19295115769 0.50983697176
-0.077064208686 0.18934987485 0.51125156879
-0.078843593597 0.18840399384 0.51371467113
-0.083265818655 0.18740446866 0.51238965988
-0.0853715837 0.18756125867 0.51191425323
-0.091208234429 0.18427170813 0.51059323549
-0.089924223721 0.1906503886 0.50980347395
-0.09546610713 0.18771055341 0.50956207514
-0.056388631463 0.17292787135 0.51741373539
-0.078180857003 0.18841193616 0.51931583881
-0.081779822707 0.18670468032 0.51591324806
-0.08299382031 0.18708904088 0.51404702663
-0.09244158864 0.18195299804 0.51549392939
-0.089631207287 0.18319962919 0.51079750061
-0.094041660428 0.18061725795 0.51032584906
-0.094177857041 0.18258169293 0.50965839624
-0.073694929481 0.17849121988 0.5342656374
-0.079272456467 0.18517957628 0.53556293249
-0.090833224356 0.18256229162 0.51657354832
-0.097727313638 0.17951144278 0.51369416714
-0.099522337317 0.1791113019 0.50970202684
-0.10166057944 0.17789159715 0.50974112749
-0.074331849813 0.18724562228 0.53333842754
-0.078319698572 0.18812344968 0.53181248903
-0.08114773035 0.18742877245 0.53138542175
-0.084345974028 0.18662829697 0.52719581127
-0.09023771435 0.18412192166 0.52421557903
-0.092036344111 0.18241280317 0.52024567127
-0.095062747598 0.18163950741 0.52118569613
-0.094847768545 0.18030744791 0.51578563452
-0.098799310625 0.17930099368 0.5168799758
-0.10256041586 0.17598381639 0.5100427866
-0.084880821407 0.18742868304 0.5350792408
-0.086462028325 0.18542550504 0.53364473581
-0.088920816779 0.18468004465 0.5300629735
-0.092288739979 0.18318215013 0.53144085407
-0.092920482159 0.18266201019 0.52656471729
-0.094918817282 0.1816790998 0.52635997534
-0.1047212705 0.17301315069 0.51285332441
-0.1032230407 0.17436672747 0.51083087921
-0.030539130792 0.15363119543 0.51570129395
-0.032243344933 0.15320777893 0.51506096125
-0.081136971712 0.18776147068 0.52496355772
-0.098186142743 0.17967389524 0.52342528105
-0.074273355305 0.18804053962 0.54545855522
-0.078824944794 0.18971429765 0.54767721891
-0.080395780504 0.18848146498 0.54429322481
-0.081480942667 0.18721179664 0.5410759449
-0.083622090518 0.18696159124 0.53676658869
-0.090032808483 0.1831549108 0.53362464905
-0.093648150563 0.18198730052 0.53123623133
-0.095594532788 0.18029899895 0.52792984247
-0.10042434186 0.17650482059 0.52622896433
-0.10282474756 0.17494928837 0.52145969868
-0.027900332585 0.14794948697 0.51167160273
-0.077968403697 0.18641841412 0.5560349226
-0.079679176211 0.18835698068 0.55471885204
-0.078498847783 0.18791614473 0.54918205738
-0.081308253109 0.18863758445 0.55331200361
-0.084345936775 0.18776066601 0.55105233192
-0.086292184889 0.18761993945 0.54991400242
-0.089995756745 0.18453034759 0.5459266901
-0.088130503893 0.18512588739 0.54059237242
-0.080253094435 0.18776141107 0.50986778736
-0.091091036797 0.18217624724 0.53914040327
-0.091124944389 0.18318302929 0.53802496195
-0.093770802021 0.18122050166 0.53671038151
-0.10038916767 0.17619861662 0.53121817112
-0.098364055157 0.17797963321 0.53063321114
-0.10556655377 0.17106604576 0.52378410101
-0.10287124664 0.1744684577 0.52546298504
-0.10721901059 0.17004269361 0.51863431931
-0.10907045752 0.16733334959 0.5144020319
-0.026854304597 0.15301993489 0.51363831758
-0.08283700794 0.17577500641 0.58108913898
-0.078653231263 0.18762812018 0.55967330933
-0.081609234214 0.1826184839 0.57008475065
-0.080893322825 0.18884992599 0.55939674377
-0.084979690611 0.18661016226 0.56235265732
-0.088200621307 0.18434087932 0.56000846624
-0.091200269759 0.181262061 0.55283498764
-0.088834829628 0.18408221006 0.54864782095
-0.089004814625 0.1847551167 0.54708647728
-0.093929208815 0.17904284596 0.55052542686
-0.092174440622 0.18160051107 0.54554772377
-0.091631174088 0.18254840374 0.54338377714
-0.096199356019 0.17696730793 0.54999101162
-0.095200896263 0.18065342307 0.54459184408
-0.098184525967 0.17771182954 0.54352653027
-0.097995199263 0.17796221375 0.541274786
-0.096518419683 0.17891329527 0.53573572636
-0.10253082961 0.1733520478 0.53915554285
-0.10137201846 0.17516668141 0.53651291132
-0.10569361597 0.17120434344 0.53396701813
-0.10501259565 0.17227295041 0.53185653687
-0.10397142172 0.17299695313 0.53022521734
-0.10871762782 0.16827128828 0.5278788805
-0.10785020143 0.16969062388 0.52736455202
-0.10796780884 0.16930790246 0.52190619707
-0.11276695132 0.16196995974 0.52037900686
-0.11135520041 0.16576480865 0.5214496851
-0.11053211242 0.16451525688 0.51297467947
-0.11627443135 0.15629124641 0.51356709003
-0.11563125253 0.15813682973 0.51297301054
-0.12579387426 0.14794835448 0.50898331404
-0.079999201 0.17787674069 0.5848056674
-0.078664749861 0.174793154 0.58481842279
-0.080363258719 0.17951083183 0.58265346289
-0.076134301722 0.18519879878 0.56277471781
-0.083198353648 0.18136151135 0.57995730639
-0.083955518901 0.18263760209 0.57622414827
-0.083467163146 0.17784658074 0.57483178377
-0.084768667817 0.18296718597 0.5736528039
-0.083287701011 0.18738470972 0.56722688675
-0.088241577148 0.18240897357 0.56047868729
-0.088299527764 0.18344768882 0.55740594864
-0.095459982753 0.17609673738 0.55653071404
-0.093346394598 0.1790381372 0.55165398121
-0.097730003297 0.17517645657 0.55128848553
-0.099429577589 0.17519822717 0.5473267436
-0.10011736304 0.17393805087 0.5452798605
-0.10354306549 0.1712500155 0.54320603609
-0.10452999175 0.17089387774 0.53921729326
-0.10724345595 0.16864293814 0.53912371397
-0.10827089846 0.16791535914 0.5351447463
-0.11197153479 0.16446375847 0.53199124336
-0.11045563221 0.16581834853 0.5302798748
-0.11552131176 0.15911456943 0.52616614103
-0.11388960481 0.15984776616 0.52144104242
-0.11887544394 0.14968946576 0.51140022278
-0.13198055327 0.14011912048 0.5090136528
-0.13173419237 0.14368245006 0.50920712948
-0.081413626671 0.17858847976 0.58853346109
-0.079660303891 0.18151853979 0.58796012402
-0.081494830549 0.18119134009 0.58391028643
-0.080930911005 0.18024410307 0.57793664932
-0.088068418205 0.17667481303 0.57562172413
-0.090320654213 0.17395082116 0.56812161207
-0.088908053935 0.18004748225 0.56619083881
-0.093713894486 0.17239554226 0.56274318695
-0.09212116152 0.17558838427 0.55943417549
-0.092169933021 0.17797107995 0.55799394846
-0.097019068897 0.17071424425 0.55868077278
-0.096260510385 0.17415158451 0.55694037676
-0.099765777588 0.16858494282 0.55721229315
-0.099283620715 0.17219907045 0.55445629358
-0.10286545753 0.16814349592 0.55536204576
-0.10158283263 0.17023560405 0.5533028841
-0.10097721964 0.16883656383 0.55536955595
-0.10521954298 0.1677800715 0.55135214329
-0.10433857143 0.1679713279 0.55258703232
-0.10378209502 0.17130166292 0.54560655355
-0.10757680982 0.16616334021 0.54926013947
-0.10661991686 0.16851571202 0.5414288044
-0.10979384184 0.16441890597 0.5459625721
-0.10985591263 0.16597934067 0.5422321558
-0.11020745337 0.1658577621 0.5372710228
-0.11225055158 0.16304270923 0.54394304752
-0.11303447932 0.16315175593 0.53834235668
-0.11332222819 0.16143032908 0.53506016731
-0.11671613157 0.15284910798 0.5356015563
-0.11660650373 0.15516018867 0.53711467981
-0.11689888686 0.15376551449 0.52881747484
-0.12510323524 0.13549052179 0.52008903027
-0.12381767482 0.1385461539 0.51703935862
-0.12121678889 0.14339499176 0.51349550486
-0.12980131805 0.13056367636 0.51025801897
-0.12912197411 0.1328330189 0.50879555941
-0.13263472915 0.13036864996 0.51014620066
-0.13311322033 0.13114626706 0.51093626022
-0.13177770376 0.1340828836 0.50950193405
-0.13514657319 0.12926948071 0.50882053375
-0.13332076371 0.13708223403 0.50861430168
-0.14109821618 0.13187390566 0.50799942017
-0.078345127404 0.18070155382 0.59899687767
-0.079244233668 0.17900913954 0.59759175777
-0.075885482132 0.17927539349 0.59310811758
-0.077853046358 0.17684388161 0.59533202648
-0.081589333713 0.18049655855 0.59480363131
-0.079546250403 0.17900964618 0.59207630157
-0.083230502903 0.17947928607 0.59447729588
-0.082929968834 0.18096327782 0.58958572149
-0.084470175207 0.17707540095 0.58384346962
-0.083360128105 0.17867869139 0.58311158419
-0.087522394955 0.17601643503 0.58051681519
-0.087038099766 0.17676782608 0.57840812206
-0.085429102182 0.17940339446 0.576153934
-0.089944966137 0.1725704968 0.57632893324
-0.089838117361 0.17386315763 0.57372742891
-0.089369259775 0.17685386539 0.57276707888
-0.093080565333 0.16812103987 0.57245236635
-0.093424960971 0.17084042728 0.56929832697
-0.092867605388 0.17027170956 0.56726181507
-0.097439058125 0.1650134474 0.56715911627
-0.096078641713 0.1659642756 0.5661187768
-0.094374321401 0.16990414262 0.56151533127
-0.098634116352 0.16296438873 0.56205278635
-0.099739745259 0.16400150955 0.56671887636
-0.097620591521 0.16748295724 0.56163758039
